ply
format ascii 1.0
comment PCL generated
element vertex 1963
property float x
property float y
property float z
element face 0
element camera 0
property float view_px
property float view_py
property float view_pz
property float x_axisx
property float x_axisy
property float x_axisz
property float y_axisx
property float y_axisy
property float y_axisz
property float z_axisx
property float z_axisy
property float z_axisz
property float focal
property float scalex
property float scaley
property float centerx
property float centery
property int viewportx
property int viewporty
property float k1
property float k2
end_header
-0.048 0.127 2.4909999
-0.046 0.12800001 2.5120001
-0.044 0.12800001 2.5239999
-0.041000001 0.12800001 2.529
-0.039000001 0.12800001 2.5309999
-0.035999998 0.12800001 2.53
-0.034000002 0.12800001 2.53
-0.030999999 0.12800001 2.5309999
-0.028999999 0.12800001 2.527
-0.026000001 0.12800001 2.52
-0.023 0.12800001 2.51
-0.02 0.127 2.4990001
-0.017999999 0.126 2.4790001
-0.015 0.124 2.451
-0.013 0.123 2.4230001
-0.0099999998 0.121 2.3929999
-0.0080000004 0.12 2.372
-0.0049999999 0.12 2.3610001
-0.003 0.12 2.355
-0.001 0.12 2.3540001
0.001 0.12 2.3570001
0.0040000002 0.12 2.365
0.0060000001 0.121 2.3740001
0.0089999996 0.121 2.385
0.011 0.122 2.3989999
0.014 0.123 2.4170001
0.016000001 0.124 2.434
0.018999999 0.124 2.448
0.021 0.125 2.4560001
0.024 0.125 2.4590001
0.026000001 0.125 2.46
0.028999999 0.125 2.4579999
0.030999999 0.125 2.4519999
0.033 0.125 2.4430001
0.035 0.124 2.4349999
0 0 0
-0.28099999 0.152 2.8859999
-0.84200001 0.456 8.6590004
-1.118 0.60799998 11.552
-1.108 0.60799998 11.565
-1.098 0.60900003 11.575
-1.087 0.60900003 11.583
-1.076 0.61000001 11.591
-1.0650001 0.61000001 11.599
-1.054 0.611 11.605
-1.043 0.611 11.61
-1.031 0.611 11.612
-1.02 0.611 11.612
-1.008 0.61000001 11.608
-0.995 0.61000001 11.602
-0.98299998 0.61000001 11.598
-0.972 0.61000001 11.596
-0.95999998 0.60900003 11.592
-0.94800001 0.60900003 11.587
-0.70700002 0.45699999 8.6879997
-0.236 0.152 2.8959999
0 0 0
0 0 0
0 0 0
0 0 0
-0.045000002 0.032000002 0.60799998
-0.134 0.096000001 1.824
-0.177 0.12800001 2.431
-0.17399999 0.12800001 2.4289999
-0.17200001 0.12800001 2.427
-0.169 0.12800001 2.425
-0.167 0.12800001 2.424
-0.164 0.12800001 2.424
-0.162 0.12800001 2.4300001
-0.161 0.12800001 2.441
-0.15899999 0.12899999 2.4530001
-0.15800001 0.12899999 2.464
-0.156 0.13 2.473
-0.153 0.13 2.4779999
-0.15099999 0.13 2.484
-0.149 0.13 2.4890001
-0.146 0.13 2.487
-0.14300001 0.13 2.477
-0.14 0.13 2.4630001
-0.13699999 0.12800001 2.4419999
-0.133 0.127 2.425
-0.13 0.127 2.4100001
-0.127 0.126 2.3970001
-0.124 0.125 2.3840001
-0.121 0.125 2.3759999
-0.118 0.125 2.3729999
-0.116 0.125 2.3710001
-0.113 0.125 2.3710001
-0.086999997 0.096000001 1.8380001
-0.035999998 0.039999999 0.773
-0.030999999 0.037 0.713
-0.071999997 0.086999997 1.6569999
-0.092 0.112 2.1289999
-0.089000002 0.112 2.1289999
-0.090000004 0.116 2.1949999
-0.093000002 0.122 2.3280001
-0.071000002 0.093999997 1.795
-0.024 0.030999999 0.59799999
-0.022 0.032000002 0.61199999
-0.064999998 0.096000001 1.836
-0.083999999 0.125 2.388
-0.077 0.119 2.2679999
-0.074000001 0.119 2.26
-0.075000003 0.124 2.3640001
-0.074000001 0.126 2.404
-0.071000002 0.125 2.3800001
-0.068999998 0.124 2.362
-0.066 0.123 2.3499999
-0.064000003 0.123 2.3440001
-0.061000001 0.123 2.345
-0.059 0.124 2.349
-0.057 0.124 2.3570001
-0.055 0.124 2.3729999
-0.052999999 0.126 2.3970001
-0.050999999 0.127 2.424
-0.050000001 0.12899999 2.454
-0.048 0.13 2.4809999
-0.046 0.131 2.5039999
-0.044 0.132 2.5179999
-0.041000001 0.132 2.5239999
-0.039000001 0.132 2.526
-0.035999998 0.132 2.5250001
-0.034000002 0.132 2.5239999
-0.030999999 0.132 2.5239999
-0.028999999 0.132 2.5190001
-0.026000001 0.132 2.5109999
-0.023 0.131 2.5
-0.02 0.13 2.4860001
-0.017999999 0.12899999 2.47
-0.015 0.12899999 2.451
-0.013 0.12800001 2.428
-0.0099999998 0.126 2.401
-0.0080000004 0.125 2.381
-0.0049999999 0.125 2.3699999
-0.003 0.124 2.3629999
-0.001 0.124 2.362
0.001 0.124 2.365
0.0040000002 0.124 2.3710001
0.0060000001 0.125 2.3800001
0.0089999996 0.125 2.3929999
0.011 0.126 2.4089999
0.014 0.12800001 2.4289999
0.016000001 0.12800001 2.444
0.018999999 0.12800001 2.4519999
0.021 0.12899999 2.4560001
0.024 0.12899999 2.4560001
0.026000001 0.12899999 2.4549999
0.028999999 0.12899999 2.4530001
0.030999999 0.12800001 2.447
0.033 0.12800001 2.4389999
0.035 0.12800001 2.4330001
0 0 0
-0.28099999 0.156 2.8840001
-0.84200001 0.46900001 8.651
-1.117 0.62599999 11.541
-1.107 0.62599999 11.553
-1.096 0.62699997 11.564
-1.086 0.62699997 11.573
-1.075 0.62800002 11.581
-1.064 0.62800002 11.589
-1.053 0.62800002 11.595
-1.0420001 0.62800002 11.599
-1.031 0.62800002 11.601
-1.0190001 0.62800002 11.602
-1.007 0.62800002 11.6
-0.995 0.62800002 11.595
-0.98299998 0.62800002 11.593
-0.972 0.62800002 11.593
-0.79500002 0.51700002 9.5640001
-0.45300001 0.294 5.5040002
-0.212 0.13699999 2.6059999
-0.071000002 0.046 0.86900002
0 0 0
0 0 0
0 0 0
0 0 0
-0.044 0.033 0.60699999
-0.134 0.098999999 1.822
-0.177 0.132 2.4289999
-0.17399999 0.132 2.4260001
-0.17200001 0.132 2.424
-0.169 0.132 2.4230001
-0.167 0.132 2.4230001
-0.164 0.132 2.4230001
-0.134 0.108 2
-0.077 0.061999999 1.156
-0.075000003 0.061999999 1.168
-0.13 0.11 2.0369999
-0.156 0.134 2.4749999
-0.154 0.134 2.483
-0.152 0.13500001 2.4890001
-0.149 0.13500001 2.494
-0.147 0.13500001 2.4949999
-0.14399999 0.13500001 2.49
-0.141 0.134 2.4790001
-0.13699999 0.133 2.46
-0.134 0.132 2.441
-0.131 0.131 2.4219999
-0.127 0.13 2.404
-0.124 0.12899999 2.388
-0.121 0.12800001 2.3770001
-0.118 0.12800001 2.3710001
-0.116 0.12800001 2.365
-0.113 0.12800001 2.3599999
-0.103 0.118 2.1789999
-0.083999999 0.098999999 1.822
-0.082000002 0.098999999 1.822
-0.094999999 0.118 2.1789999
-0.101 0.12800001 2.3599999
-0.098999999 0.12800001 2.365
-0.097000003 0.12899999 2.3759999
-0.096000001 0.12899999 2.392
-0.071000002 0.097000003 1.8
-0.024 0.032000002 0.60000002
-0.0070000002 0.0099999998 0.184
-0.02 0.028999999 0.55199999
-0.039999999 0.061999999 1.1720001
-0.068999998 0.11 2.0450001
-0.082000002 0.134 2.4760001
-0.079000004 0.133 2.464
-0.075999998 0.132 2.4460001
-0.072999999 0.131 2.4230001
-0.07 0.13 2.402
-0.067000002 0.12899999 2.3840001
-0.064000003 0.12800001 2.3740001
-0.061999999 0.12800001 2.3699999
-0.059999999 0.12800001 2.3670001
-0.057 0.12800001 2.365
-0.055 0.12800001 2.3759999
-0.052999999 0.13 2.4000001
-0.050999999 0.131 2.4260001
-0.048999999 0.133 2.4519999
-0.046999998 0.134 2.473
-0.045000002 0.134 2.4890001
-0.043000001 0.13500001 2.5
-0.041000001 0.13600001 2.507
-0.037999999 0.13600001 2.51
-0.035999998 0.13600001 2.51
-0.033 0.13600001 2.51
-0.030999999 0.13600001 2.5090001
-0.028000001 0.13600001 2.5039999
-0.025 0.13500001 2.493
-0.023 0.134 2.4820001
-0.02 0.134 2.4719999
-0.017999999 0.133 2.46
-0.015 0.132 2.447
-0.013 0.131 2.428
-0.0099999998 0.13 2.4059999
-0.0080000004 0.12899999 2.3889999
-0.0049999999 0.12899999 2.3789999
-0.003 0.12800001 2.375
-0.001 0.12800001 2.3759999
0.001 0.12800001 2.3789999
0.0040000002 0.12899999 2.3829999
0.0060000001 0.12899999 2.3900001
0.0089999996 0.13 2.402
0.011 0.131 2.4159999
0.014 0.131 2.4319999
0.016000001 0.132 2.4419999
0.018999999 0.132 2.448
0.021 0.132 2.45
0.024 0.132 2.45
0.026000001 0.132 2.448
0.028000001 0.132 2.4449999
0.029999999 0.132 2.441
0.033 0.132 2.4360001
0.035 0.132 2.4330001
0 0 0
-0.28 0.161 2.8829999
-0.84200001 0.48300001 8.6479998
-1.117 0.64399999 11.538
-1.107 0.64499998 11.552
-1.096 0.64499998 11.563
-1.085 0.64499998 11.57
-1.074 0.64600003 11.578
-1.064 0.64600003 11.586
-1.052 0.64600003 11.591
-1.041 0.64600003 11.593
-1.03 0.64600003 11.594
-1.018 0.64600003 11.592
-1.006 0.64600003 11.59
-0.99400002 0.64600003 11.586
-0.98299998 0.64600003 11.585
-0.97100002 0.64600003 11.587
-0.72399998 0.484 8.691
-0.241 0.162 2.8970001
0 0 0
0 0 0
0 0 0
0 0 0
-0.023 0.017000001 0.30399999
-0.068999998 0.052000001 0.91299999
-0.113 0.086000003 1.52
-0.156 0.119 2.125
-0.177 0.13500001 2.4260001
-0.17399999 0.13500001 2.4230001
-0.17200001 0.13500001 2.4200001
-0.169 0.13500001 2.4189999
-0.16599999 0.13500001 2.418
-0.164 0.13500001 2.418
-0.122 0.101 1.813
-0.041000001 0.034000002 0.60399997
-0.039000001 0.034000002 0.61799997
-0.118 0.103 1.855
-0.156 0.138 2.4779999
-0.154 0.138 2.487
-0.152 0.139 2.493
-0.15000001 0.139 2.4979999
-0.147 0.139 2.4990001
-0.145 0.139 2.4979999
-0.142 0.138 2.49
-0.138 0.138 2.474
-0.13500001 0.13600001 2.4549999
-0.131 0.13600001 2.4319999
-0.12800001 0.134 2.411
-0.124 0.133 2.392
-0.121 0.132 2.3770001
-0.118 0.132 2.368
-0.116 0.131 2.3599999
-0.113 0.131 2.3529999
-0.11 0.131 2.349
-0.108 0.131 2.3469999
-0.106 0.131 2.348
-0.103 0.131 2.352
-0.089000002 0.114 2.062
-0.061999999 0.082000002 1.477
-0.048999999 0.064999998 1.189
-0.048 0.064999998 1.197
-0.035999998 0.048999999 0.90100002
-0.012 0.016000001 0.30000001
-0.011 0.017999999 0.31299999
-0.033 0.052999999 0.93800002
-0.054000001 0.088 1.563
-0.074000001 0.122 2.188
-0.082999997 0.139 2.497
-0.079999998 0.139 2.4909999
-0.077 0.138 2.48
-0.074000001 0.13699999 2.4630001
-0.071000002 0.13600001 2.4449999
-0.068000004 0.13500001 2.4260001
-0.066 0.134 2.4119999
-0.063000001 0.134 2.402
-0.059999999 0.133 2.3940001
-0.057999998 0.133 2.3870001
-0.055 0.133 2.392
-0.052999999 0.134 2.4070001
-0.050999999 0.13500001 2.4230001
-0.048999999 0.13600001 2.438
-0.046999998 0.13699999 2.45
-0.045000002 0.13699999 2.4579999
-0.041999999 0.13699999 2.4649999
-0.039999999 0.138 2.473
-0.037999999 0.138 2.4790001
-0.035 0.138 2.483
-0.033 0.138 2.4849999
-0.029999999 0.138 2.484
-0.028000001 0.138 2.48
-0.025 0.138 2.4719999
-0.023 0.13699999 2.464
-0.02 0.13699999 2.4579999
-0.017999999 0.13699999 2.4519999
-0.015 0.13600001 2.444
-0.013 0.13500001 2.4319999
-0.0099999998 0.134 2.415
-0.0080000004 0.134 2.4030001
-0.0049999999 0.133 2.3970001
-0.003 0.133 2.3940001
-0.001 0.133 2.3959999
0.001 0.133 2.398
0.0040000002 0.134 2.4000001
0.0060000001 0.134 2.405
0.0089999996 0.134 2.4119999
0.011 0.13500001 2.4200001
0.014 0.13500001 2.4300001
0.016000001 0.13600001 2.4360001
0.018999999 0.13600001 2.4389999
0.021 0.13600001 2.441
0.023 0.13600001 2.441
0.026000001 0.13600001 2.4400001
0.028000001 0.13600001 2.4400001
0.029999999 0.13600001 2.438
0.033 0.13600001 2.4349999
0.035 0.13600001 2.434
0 0 0
-0.19599999 0.115 2.0179999
-0.58899999 0.34400001 6.0539999
-0.86500001 0.50999999 8.9449997
-1.023 0.61299998 10.691
-1.096 0.66399997 11.567
-1.086 0.66399997 11.573
-1.074 0.66399997 11.579
-1.064 0.66500002 11.586
-1.052 0.66500002 11.59
-1.041 0.66500002 11.59
-1.029 0.66500002 11.588
-1.018 0.66500002 11.585
-1.006 0.66399997 11.581
-0.99400002 0.66399997 11.577
-0.98199999 0.66399997 11.576
-0.97000003 0.66399997 11.578
-0.72399998 0.498 8.6850004
-0.241 0.16599999 2.895
0 0 0
0 0 0
0 0 0
0 0 0
-0.046 0.035 0.60799998
-0.13699999 0.105 1.824
-0.182 0.139 2.4300001
-0.17900001 0.139 2.4260001
-0.177 0.139 2.4230001
-0.17399999 0.139 2.4200001
-0.171 0.138 2.4170001
-0.168 0.138 2.415
-0.16599999 0.138 2.414
-0.164 0.138 2.4130001
-0.122 0.104 1.8099999
-0.041000001 0.035 0.60299999
-0.039000001 0.035 0.61900002
-0.118 0.106 1.8559999
-0.156 0.142 2.4790001
-0.154 0.142 2.4890001
-0.152 0.14300001 2.4960001
-0.15000001 0.14300001 2.4990001
-0.148 0.14399999 2.5009999
-0.145 0.14399999 2.5009999
-0.142 0.14300001 2.4960001
-0.139 0.142 2.4849999
-0.13500001 0.141 2.467
-0.132 0.14 2.4419999
-0.12800001 0.139 2.418
-0.125 0.13699999 2.395
-0.122 0.13600001 2.378
-0.118 0.13600001 2.3659999
-0.116 0.13500001 2.3570001
-0.113 0.13500001 2.3510001
-0.11 0.134 2.3469999
-0.108 0.134 2.3440001
-0.097999997 0.124 2.1700001
-0.079999998 0.103 1.822
-0.054000001 0.07 1.2359999
-0.017999999 0.023 0.412
0 0 0
0 0 0
0 0 0
0 0 0
-0.016000001 0.025 0.43799999
-0.046999998 0.075000003 1.313
-0.068000004 0.11 1.9400001
-0.079000004 0.132 2.3180001
-0.082999997 0.14399999 2.507
-0.079999998 0.14399999 2.507
-0.078000002 0.14300001 2.5020001
-0.075000003 0.14300001 2.493
-0.071999997 0.142 2.48
-0.07 0.141 2.464
-0.067000002 0.14 2.4489999
-0.064000003 0.139 2.4360001
-0.061000001 0.139 2.4260001
-0.059 0.138 2.4189999
-0.056000002 0.138 2.414
-0.052999999 0.138 2.4100001
-0.050999999 0.138 2.4089999
-0.048999999 0.138 2.4130001
-0.046 0.139 2.4159999
-0.044 0.139 2.4189999
-0.041999999 0.139 2.4230001
-0.039999999 0.139 2.4300001
-0.037 0.14 2.437
-0.035 0.14 2.4449999
-0.032000002 0.14 2.45
-0.029999999 0.141 2.4519999
-0.028000001 0.14 2.451
-0.025 0.14 2.4489999
-0.023 0.14 2.447
-0.02 0.14 2.4460001
-0.017999999 0.14 2.444
-0.015 0.14 2.4430001
-0.013 0.139 2.437
-0.0099999998 0.139 2.428
-0.0080000004 0.139 2.4219999
-0.0049999999 0.138 2.4200001
-0.003 0.138 2.4189999
-0.001 0.138 2.4189999
0.001 0.138 2.4200001
0.0040000002 0.139 2.421
0.0060000001 0.139 2.421
0.0089999996 0.139 2.421
0.011 0.139 2.4230001
0.014 0.139 2.4260001
0.016000001 0.139 2.428
0.018999999 0.139 2.4289999
0.021 0.139 2.4300001
0.023 0.139 2.4300001
0.025 0.139 2.4319999
0.028000001 0.139 2.4360001
0.029999999 0.14 2.437
0.033 0.14 2.4360001
0.035 0.14 2.4360001
0 0 0
0 0 0
0 0 0
-0.27599999 0.171 2.891
-0.82599998 0.51200002 8.6739998
-1.096 0.68199998 11.568
-1.086 0.68300003 11.574
-1.074 0.68300003 11.58
-1.063 0.68300003 11.584
-1.052 0.68300003 11.587
-1.041 0.68300003 11.587
-1.029 0.68300003 11.584
-1.017 0.68300003 11.578
-1.005 0.68199998 11.573
-0.99299997 0.68199998 11.568
-0.98100001 0.68199998 11.567
-0.97000003 0.68199998 11.569
-0.72299999 0.51200002 8.677
-0.241 0.171 2.892
0 0 0
0 0 0
0 0 0
0 0 0
-0.046 0.035999998 0.60699999
-0.13699999 0.108 1.8200001
-0.182 0.14300001 2.424
-0.17900001 0.14300001 2.421
-0.176 0.142 2.418
-0.17299999 0.142 2.4159999
-0.171 0.142 2.415
-0.168 0.142 2.414
-0.16599999 0.142 2.4130001
-0.164 0.142 2.4130001
-0.126 0.11 1.87
-0.052999999 0.046999998 0.78500003
-0.050999999 0.046999998 0.80000001
-0.122 0.113 1.915
-0.156 0.146 2.477
-0.154 0.146 2.4879999
-0.152 0.147 2.494
-0.15000001 0.147 2.4979999
-0.147 0.147 2.4990001
-0.14399999 0.147 2.4990001
-0.142 0.147 2.4960001
-0.139 0.147 2.4909999
-0.13600001 0.146 2.4760001
-0.132 0.14399999 2.451
-0.12800001 0.14300001 2.425
-0.125 0.141 2.398
-0.122 0.14 2.3789999
-0.118 0.14 2.368
-0.116 0.139 2.359
-0.113 0.139 2.3529999
-0.111 0.138 2.348
-0.108 0.138 2.3440001
-0.079999998 0.103 1.757
-0.027000001 0.034000002 0.58600003
0 0 0
0 0 0
0 0 0
0 0 0
0 0 0
0 0 0
0 0 0
0 0 0
-0.021 0.037 0.62699997
-0.063000001 0.111 1.882
-0.082999997 0.148 2.5109999
-0.079999998 0.148 2.513
-0.078000002 0.148 2.5120001
-0.075000003 0.148 2.5079999
-0.072999999 0.147 2.5
-0.07 0.147 2.4890001
-0.068000004 0.146 2.4779999
-0.064999998 0.145 2.4660001
-0.061999999 0.14399999 2.4560001
-0.059 0.14399999 2.4449999
-0.056000002 0.14300001 2.4260001
-0.052999999 0.141 2.3989999
-0.050999999 0.14 2.385
-0.048 0.14 2.3829999
-0.046 0.14 2.382
-0.043000001 0.14 2.3829999
-0.041000001 0.14 2.385
-0.039000001 0.14 2.388
-0.037 0.141 2.3929999
-0.034000002 0.141 2.401
-0.032000002 0.141 2.408
-0.028999999 0.142 2.415
-0.026000001 0.139 2.3610001
-0.023 0.132 2.2460001
-0.02 0.12899999 2.1900001
-0.017999999 0.12899999 2.1919999
-0.016000001 0.132 2.2550001
-0.015 0.14 2.3789999
-0.013 0.14399999 2.4419999
-0.0099999998 0.14399999 2.4430001
-0.0080000004 0.14399999 2.444
-0.0049999999 0.14399999 2.444
-0.003 0.14399999 2.4430001
-0.001 0.14399999 2.4430001
0.001 0.14399999 2.4419999
0.0040000002 0.14399999 2.441
0.0060000001 0.14300001 2.4360001
0.0089999996 0.14300001 2.4289999
0.011 0.142 2.424
0.014 0.142 2.421
0.016000001 0.142 2.4189999
0.018999999 0.142 2.418
0.021 0.142 2.4200001
0.023 0.142 2.4219999
0.025 0.14300001 2.4260001
0.028000001 0.14300001 2.4319999
0.029999999 0.14399999 2.4360001
0.033 0.14399999 2.438
0.035 0.14399999 2.438
-0.82599998 0.52499998 8.6669998
-1.096 0.69999999 11.56
-1.086 0.70099998 11.566
-1.074 0.70099998 11.572
-1.063 0.70099998 11.575
-1.051 0.70099998 11.577
-1.04 0.70099998 11.578
-1.028 0.70099998 11.575
-1.016 0.70099998 11.568
-1.0039999 0.69999999 11.563
-0.99199998 0.69999999 11.56
-0.98000002 0.69999999 11.559
-0.96899998 0.69999999 11.559
-0.722 0.52499998 8.6689997
-0.241 0.175 2.8900001
0 0 0
0 0 0
0 0 0
0 0 0
-0.046 0.037 0.60500002
-0.13699999 0.11 1.816
-0.18099999 0.146 2.418
-0.178 0.146 2.414
-0.176 0.146 2.411
-0.17299999 0.146 2.4100001
-0.171 0.146 2.4100001
-0.168 0.146 2.4100001
-0.16599999 0.146 2.4100001
-0.163 0.146 2.4100001
-0.15700001 0.142 2.3540001
-0.148 0.13600001 2.2420001
-0.147 0.13699999 2.257
-0.154 0.145 2.3989999
-0.156 0.15000001 2.4749999
-0.154 0.15000001 2.4860001
-0.152 0.15099999 2.4920001
-0.149 0.15099999 2.494
-0.147 0.15099999 2.4949999
-0.14399999 0.15099999 2.4949999
-0.142 0.15099999 2.4920001
-0.139 0.15099999 2.4849999
-0.13600001 0.15000001 2.4749999
-0.133 0.149 2.4619999
-0.12899999 0.147 2.4400001
-0.125 0.145 2.408
-0.122 0.14399999 2.3859999
-0.118 0.14399999 2.3729999
-0.116 0.14300001 2.3629999
-0.113 0.14300001 2.3570001
-0.111 0.142 2.352
-0.108 0.142 2.3499999
-0.079999998 0.106 1.761
-0.027000001 0.035 0.58700001
0 0 0
0 0 0
0 0 0
0 0 0
0 0 0
0 0 0
0 0 0
0 0 0
-0.021 0.037999999 0.62599999
-0.063000001 0.114 1.8789999
-0.082999997 0.152 2.507
-0.079999998 0.152 2.51
-0.078000002 0.152 2.51
-0.075000003 0.152 2.507
-0.072999999 0.15099999 2.5020001
-0.07 0.15099999 2.4949999
-0.068000004 0.15000001 2.4879999
-0.064999998 0.15000001 2.4790001
-0.061999999 0.148 2.46
-0.059 0.147 2.4289999
-0.056000002 0.145 2.402
-0.052999999 0.14300001 2.3789999
-0.050000001 0.14300001 2.365
-0.046999998 0.14300001 2.3599999
-0.045000002 0.14300001 2.3570001
-0.043000001 0.14300001 2.3570001
-0.041000001 0.14300001 2.3570001
-0.037999999 0.14300001 2.358
-0.035999998 0.14300001 2.3599999
-0.033 0.14300001 2.365
-0.030999999 0.14300001 2.3710001
-0.028999999 0.14399999 2.378
-0.022 0.111 1.847
-0.0089999996 0.046999998 0.778
-0.0020000001 0.014 0.243
-0.0020000001 0.014 0.244
-0.0049999999 0.048 0.79699999
-0.011 0.115 1.904
-0.013 0.148 2.4590001
-0.0099999998 0.148 2.461
-0.0080000004 0.149 2.4619999
-0.0060000001 0.149 2.464
-0.0040000002 0.149 2.4630001
-0.001 0.149 2.461
0.001 0.148 2.457
0.0040000002 0.148 2.4519999
0.0060000001 0.148 2.4419999
0.0089999996 0.147 2.428
0.011 0.146 2.418
0.014 0.146 2.4130001
0.016000001 0.146 2.411
0.017999999 0.146 2.4119999
0.02 0.146 2.4159999
0.023 0.146 2.421
0.025 0.147 2.427
0.028000001 0.147 2.4330001
0.029999999 0.148 2.437
0.033 0.148 2.4400001
0.035 0.148 2.4419999
-0.248 0.15800001 2.5999999
-0.51800001 0.338 5.4920001
-0.89300001 0.59200001 9.5419998
-0.889 0.59200001 9.5430002
-0.50800002 0.338 5.4959998
-0.49599999 0.338 5.4980001
-0.85500002 0.59200001 9.5489998
-1.028 0.71899998 11.569
-1.015 0.71899998 11.56
-1.003 0.71799999 11.554
-0.99199998 0.71799999 11.552
-0.98000002 0.71799999 11.551
-0.96899998 0.71799999 11.552
-0.722 0.53899997 8.6639996
-0.241 0.18000001 2.888
0 0 0
0 0 0
0 0 0
0 0 0
-0.046 0.037999999 0.60500002
-0.13600001 0.113 1.814
-0.18099999 0.15000001 2.4170001
-0.178 0.15000001 2.4119999
-0.176 0.15000001 2.4089999
-0.17299999 0.15000001 2.408
-0.171 0.15000001 2.4059999
-0.168 0.15000001 2.405
-0.16599999 0.15000001 2.405
-0.163 0.15000001 2.405
-0.161 0.15000001 2.411
-0.15899999 0.15000001 2.4200001
-0.13 0.124 2.0039999
-0.075000003 0.071000002 1.1619999
-0.072999999 0.071999997 1.177
-0.126 0.127 2.0480001
-0.15099999 0.154 2.484
-0.149 0.154 2.4860001
-0.147 0.154 2.4860001
-0.14399999 0.154 2.4860001
-0.141 0.154 2.4820001
-0.139 0.154 2.4760001
-0.13600001 0.153 2.4690001
-0.133 0.153 2.4619999
-0.12899999 0.152 2.4449999
-0.126 0.15000001 2.4170001
-0.122 0.149 2.3959999
-0.119 0.148 2.382
-0.116 0.147 2.372
-0.113 0.147 2.365
-0.111 0.146 2.3610001
-0.108 0.146 2.358
-0.079999998 0.11 1.767
-0.027000001 0.037 0.58899999
0 0 0
0 0 0
0 0 0
0 0 0
0 0 0
0 0 0
0 0 0
0 0 0
-0.021 0.039000001 0.62599999
-0.063000001 0.117 1.8789999
-0.082999997 0.156 2.507
-0.079999998 0.156 2.51
-0.078000002 0.156 2.51
-0.075000003 0.156 2.5090001
-0.072999999 0.155 2.506
-0.07 0.155 2.5
-0.068000004 0.154 2.4909999
-0.064999998 0.154 2.4779999
-0.061999999 0.152 2.454
-0.059 0.15000001 2.4189999
-0.056000002 0.148 2.3900001
-0.052000001 0.147 2.368
-0.050000001 0.146 2.355
-0.046999998 0.146 2.3499999
-0.045000002 0.146 2.3469999
-0.041999999 0.146 2.346
-0.039999999 0.146 2.346
-0.037999999 0.146 2.3469999
-0.035999998 0.146 2.3499999
-0.033 0.146 2.3540001
-0.030999999 0.146 2.359
-0.028999999 0.147 2.365
-0.021 0.11 1.776
-0.0070000002 0.037 0.59200001
0 0 0
0 0 0
-0.0040000002 0.037999999 0.61799997
-0.0099999998 0.115 1.853
-0.013 0.153 2.4719999
-0.0099999998 0.153 2.474
-0.0080000004 0.153 2.4760001
-0.0060000001 0.154 2.4790001
-0.0040000002 0.154 2.4790001
-0.001 0.153 2.4749999
0.001 0.153 2.467
0.0040000002 0.152 2.4560001
0.0060000001 0.15099999 2.4430001
0.0089999996 0.15000001 2.427
0.011 0.15000001 2.4159999
0.014 0.15000001 2.4119999
0.016000001 0.15000001 2.4100001
0.017999999 0.15000001 2.411
0.02 0.15000001 2.415
0.023 0.15000001 2.4219999
0.025 0.15099999 2.4289999
0.028000001 0.15099999 2.4349999
0.029999999 0.152 2.4400001
0.033 0.152 2.4430001
0.035 0.152 2.4449999
-0.14 0.093000002 1.442
-0.27000001 0.184 2.892
-0.81 0.55299997 8.6759996
-0.94199997 0.64700001 10.122
-0.66600001 0.465 7.23
-0.65499997 0.465 7.2309999
-0.90799999 0.64700001 10.124
-1.028 0.73699999 11.565
-1.015 0.73699999 11.555
-1.003 0.736 11.548
-0.991 0.736 11.543
-0.97899997 0.736 11.541
-0.96799999 0.736 11.543
-0.722 0.55199999 8.658
-0.241 0.184 2.8859999
0 0 0
0 0 0
0 0 0
0 0 0
-0.023 0.018999999 0.30199999
-0.068000004 0.057 0.90700001
-0.112 0.094999999 1.5089999
-0.155 0.134 2.1070001
-0.175 0.153 2.4059999
-0.17299999 0.153 2.405
-0.171 0.153 2.4030001
-0.168 0.153 2.4000001
-0.16500001 0.153 2.4000001
-0.163 0.153 2.401
-0.161 0.153 2.4070001
-0.15899999 0.154 2.418
-0.119 0.116 1.818
-0.039999999 0.039000001 0.60600001
-0.037999999 0.039000001 0.61900002
-0.114 0.118 1.8559999
-0.15099999 0.15800001 2.4749999
-0.149 0.15800001 2.4749999
-0.146 0.15800001 2.4749999
-0.14300001 0.15700001 2.474
-0.141 0.15700001 2.471
-0.138 0.15700001 2.4660001
-0.13500001 0.15700001 2.46
-0.132 0.156 2.4530001
-0.12899999 0.156 2.4419999
-0.126 0.154 2.4260001
-0.123 0.154 2.4130001
-0.12 0.153 2.404
-0.103 0.133 2.095
-0.071999997 0.093999997 1.487
-0.055 0.074000001 1.182
-0.054000001 0.074000001 1.1799999
-0.039999999 0.056000002 0.88499999
-0.013 0.017999999 0.29499999
0 0 0
0 0 0
0 0 0
0 0 0
0 0 0
0 0 0
0 0 0
0 0 0
-0.0099999998 0.02 0.31299999
-0.032000002 0.059 0.94
-0.050999999 0.098999999 1.566
-0.07 0.139 2.1919999
-0.078000002 0.15899999 2.5050001
-0.075000003 0.15899999 2.5050001
-0.072999999 0.15899999 2.5020001
-0.07 0.15899999 2.4960001
-0.067000002 0.15800001 2.483
-0.064000003 0.15700001 2.4619999
-0.061000001 0.155 2.4360001
-0.057999998 0.153 2.4059999
-0.055 0.15099999 2.3800001
-0.052000001 0.15000001 2.3610001
-0.050000001 0.149 2.349
-0.046999998 0.149 2.3440001
-0.045000002 0.149 2.342
-0.041999999 0.149 2.3410001
-0.039999999 0.149 2.3410001
-0.037999999 0.149 2.342
-0.035999998 0.149 2.3440001
-0.033 0.149 2.348
-0.030999999 0.15000001 2.3529999
-0.028999999 0.15000001 2.359
-0.021 0.112 1.771
-0.0070000002 0.037999999 0.58999997
-0.0020000001 0.02 0.30899999
-0.0070000002 0.059999999 0.92699999
-0.011 0.1 1.548
-0.013 0.138 2.1719999
-0.013 0.15800001 2.4849999
-0.011 0.15800001 2.4860001
-0.0080000004 0.15800001 2.4879999
-0.0060000001 0.15800001 2.49
-0.0040000002 0.15800001 2.4879999
-0.001 0.15800001 2.483
0.001 0.15700001 2.474
0.0040000002 0.156 2.46
0.0060000001 0.155 2.4449999
0.0089999996 0.154 2.427
0.011 0.154 2.4159999
0.014 0.154 2.4130001
0.016000001 0.154 2.4119999
0.017999999 0.154 2.4119999
0.021 0.154 2.4170001
0.023 0.154 2.424
0.025 0.155 2.431
0.028000001 0.155 2.4360001
0.029999999 0.156 2.4400001
0.033 0.156 2.4430001
0.035 0.156 2.444
-0.52899998 0.36199999 5.4829998
-0.51800001 0.36300001 5.4920001
-0.89300001 0.625 9.5430002
-1.074 0.75599998 11.568
-1.063 0.75599998 11.569
-1.051 0.75599998 11.569
-1.04 0.75599998 11.569
-1.028 0.75599998 11.564
-1.015 0.755 11.554
-1.003 0.755 11.545
-0.99000001 0.75400001 11.537
-0.97799999 0.75400001 11.534
-0.96700001 0.75400001 11.535
-0.72100002 0.565 8.651
-0.23999999 0.18799999 2.8840001
0 0 0
0 0 0
0 0 0
0 0 0
0 0 0
0 0 0
-0.044 0.039000001 0.60100001
-0.132 0.118 1.802
-0.175 0.15700001 2.402
-0.17299999 0.15700001 2.402
-0.17 0.156 2.4000001
-0.167 0.156 2.3959999
-0.16500001 0.156 2.3959999
-0.163 0.156 2.398
-0.161 0.15700001 2.404
-0.15899999 0.15800001 2.415
-0.119 0.119 1.8150001
-0.039999999 0.039999999 0.60500002
-0.037999999 0.039999999 0.61500001
-0.114 0.121 1.845
-0.15000001 0.161 2.46
-0.148 0.161 2.4590001
-0.145 0.161 2.4579999
-0.14300001 0.16 2.4579999
-0.14 0.16 2.4560001
-0.13699999 0.16 2.454
-0.134 0.16 2.45
-0.132 0.16 2.444
-0.12899999 0.15899999 2.4400001
-0.127 0.15899999 2.437
-0.124 0.15899999 2.4319999
-0.121 0.15800001 2.427
-0.090000004 0.118 1.818
-0.029999999 0.039000001 0.60600001
0 0 0
0 0 0
0 0 0
0 0 0
0 0 0
0 0 0
0 0 0
0 0 0
0 0 0
0 0 0
0 0 0
0 0 0
-0.0060000001 0.012 0.186
-0.018999999 0.037 0.55900002
-0.037999999 0.078000002 1.183
-0.064999998 0.134 2.0580001
-0.078000002 0.162 2.4960001
-0.075000003 0.162 2.4979999
-0.072999999 0.162 2.494
-0.07 0.162 2.484
-0.067000002 0.161 2.4660001
-0.064000003 0.15899999 2.441
-0.059999999 0.15700001 2.415
-0.057999998 0.156 2.3889999
-0.055 0.155 2.369
-0.052000001 0.154 2.3559999
-0.050000001 0.153 2.3469999
-0.046999998 0.153 2.3429999
-0.045000002 0.152 2.3399999
-0.041999999 0.152 2.339
-0.039999999 0.152 2.339
-0.037999999 0.152 2.3399999
-0.035999998 0.153 2.342
-0.033 0.153 2.346
-0.030999999 0.153 2.3510001
-0.028999999 0.153 2.3570001
-0.023 0.127 1.9529999
-0.012 0.075000003 1.137
-0.0099999998 0.077 1.166
-0.016000001 0.133 2.039
-0.017999999 0.162 2.48
-0.015 0.162 2.4890001
-0.013 0.162 2.494
-0.011 0.162 2.494
-0.0089999996 0.162 2.494
-0.0060000001 0.162 2.494
-0.0040000002 0.162 2.4909999
-0.001 0.162 2.4860001
0.001 0.161 2.4760001
0.0040000002 0.161 2.4619999
0.0060000001 0.16 2.4460001
0.0089999996 0.15800001 2.4260001
0.011 0.15700001 2.415
0.014 0.15700001 2.4119999
0.016000001 0.15700001 2.4119999
0.018999999 0.15700001 2.414
0.021 0.15800001 2.418
0.023 0.15800001 2.4260001
0.025 0.15899999 2.4319999
0.028000001 0.15899999 2.4360001
0.029999999 0.15899999 2.4389999
0.033 0.15899999 2.441
0.035 0.15899999 2.4400001
-1.107 0.77399999 11.55
-1.096 0.77399999 11.559
-1.086 0.77399999 11.564
-1.074 0.77399999 11.567
-1.063 0.77399999 11.569
-1.051 0.77399999 11.57
-1.04 0.77399999 11.572
-1.028 0.77399999 11.566
-1.015 0.773 11.555
-1.003 0.773 11.545
-0.99000001 0.77200001 11.536
-0.97799999 0.77200001 11.531
-0.96700001 0.77200001 11.529
-0.72100002 0.57800001 8.6459999
-0.23999999 0.193 2.882
0 0 0
0 0 0
0 0 0
0 0 0
0 0 0
0 0 0
-0.044 0.039999999 0.60000002
-0.132 0.12 1.8
-0.175 0.16 2.3989999
-0.17200001 0.16 2.398
-0.17 0.16 2.3959999
-0.167 0.16 2.3929999
-0.16500001 0.16 2.3929999
-0.162 0.16 2.395
-0.16 0.161 2.3989999
-0.15899999 0.161 2.4070001
-0.118 0.121 1.808
-0.039000001 0.039999999 0.60299999
-0.037 0.041000001 0.61000001
-0.112 0.122 1.829
-0.149 0.163 2.438
-0.146 0.163 2.437
-0.14399999 0.163 2.4360001
-0.141 0.163 2.4360001
-0.139 0.163 2.437
-0.13600001 0.163 2.4400001
-0.134 0.163 2.4430001
-0.132 0.163 2.444
-0.13 0.164 2.4460001
-0.127 0.164 2.4489999
-0.125 0.163 2.4449999
-0.122 0.163 2.437
-0.093000002 0.126 1.885
-0.039000001 0.052999999 0.79100001
-0.0089999996 0.013 0.183
-0.003 0.0040000002 0.061000001
0 0 0
0 0 0
0 0 0
0 0 0
0 0 0
0 0 0
0 0 0
0 0 0
-0.0020000001 0.0040000002 0.061000001
-0.0070000002 0.013 0.184
-0.027000001 0.054000001 0.80500001
-0.064000003 0.12800001 1.924
-0.082000002 0.16500001 2.483
-0.079999998 0.16500001 2.4820001
-0.078000002 0.16599999 2.484
-0.075000003 0.16599999 2.4879999
-0.071999997 0.16599999 2.4809999
-0.068999998 0.16500001 2.4619999
-0.066 0.163 2.4419999
-0.063000001 0.162 2.421
-0.059999999 0.16 2.3970001
-0.057 0.15800001 2.372
-0.055 0.15800001 2.3570001
-0.052000001 0.15800001 2.3529999
-0.050000001 0.15700001 2.349
-0.046999998 0.15700001 2.345
-0.045000002 0.156 2.3410001
-0.041999999 0.156 2.339
-0.039999999 0.156 2.339
-0.037999999 0.156 2.3399999
-0.035999998 0.156 2.3429999
-0.033 0.156 2.346
-0.030999999 0.15700001 2.3529999
-0.028999999 0.15700001 2.362
-0.027000001 0.15899999 2.3829999
-0.025 0.161 2.4159999
-0.023 0.163 2.4449999
-0.02 0.16500001 2.4679999
-0.017999999 0.16599999 2.483
-0.015 0.16599999 2.4890001
-0.013 0.16599999 2.4920001
-0.011 0.16599999 2.493
-0.0089999996 0.16599999 2.493
-0.0060000001 0.16599999 2.4920001
-0.0040000002 0.16599999 2.4890001
-0.001 0.16599999 2.483
0.001 0.16500001 2.474
0.0040000002 0.164 2.46
0.0060000001 0.163 2.444
0.0089999996 0.162 2.424
0.011 0.161 2.4119999
0.014 0.161 2.4100001
0.016000001 0.161 2.411
0.017999999 0.161 2.4130001
0.02 0.162 2.418
0.023 0.162 2.4260001
0.025 0.162 2.431
0.028000001 0.162 2.4349999
0.029999999 0.162 2.437
0.033 0.162 2.437
0.035 0.162 2.4349999
-1.107 0.792 11.551
-1.096 0.79299998 11.56
-1.086 0.79299998 11.563
-1.074 0.79299998 11.565
-1.063 0.79299998 11.567
-1.051 0.79299998 11.567
-1.039 0.79299998 11.566
-1.027 0.792 11.559
-1.0140001 0.79100001 11.548
-1.002 0.79100001 11.537
-0.98900002 0.79000002 11.526
-0.97799999 0.79000002 11.521
-0.96700001 0.79000002 11.522
-0.72100002 0.59200001 8.6420002
-0.23999999 0.197 2.881
0 0 0
0 0 0
0 0 0
0 0 0
0 0 0
0 0 0
-0.044 0.041000001 0.59899998
-0.132 0.123 1.7970001
-0.175 0.164 2.395
-0.17200001 0.164 2.392
-0.17 0.164 2.3900001
-0.167 0.164 2.3900001
-0.16500001 0.164 2.391
-0.162 0.164 2.3929999
-0.16 0.164 2.3959999
-0.15800001 0.164 2.401
-0.118 0.123 1.802
-0.039000001 0.041000001 0.60100001
-0.037 0.041000001 0.60600001
-0.112 0.124 1.817
-0.148 0.16599999 2.4219999
-0.145 0.16599999 2.4189999
-0.14300001 0.16599999 2.4170001
-0.14 0.16599999 2.4159999
-0.138 0.16599999 2.4189999
-0.13600001 0.16599999 2.4260001
-0.134 0.167 2.4349999
-0.132 0.167 2.4430001
-0.13 0.168 2.45
-0.127 0.168 2.4530001
-0.125 0.168 2.454
-0.122 0.168 2.4530001
-0.117 0.163 2.388
-0.109 0.155 2.2609999
-0.078000002 0.113 1.648
-0.026000001 0.037999999 0.54900002
0 0 0
0 0 0
0 0 0
0 0 0
0 0 0
0 0 0
0 0 0
0 0 0
-0.02 0.037999999 0.55199999
-0.059 0.113 1.656
-0.079000004 0.156 2.273
-0.082000002 0.164 2.402
-0.082000002 0.169 2.4649999
-0.079000004 0.169 2.4619999
-0.077 0.168 2.457
-0.074000001 0.167 2.451
-0.071000002 0.16599999 2.4389999
-0.068000004 0.16500001 2.4219999
-0.066 0.164 2.404
-0.063000001 0.163 2.385
-0.059999999 0.162 2.372
-0.057 0.162 2.365
-0.055 0.162 2.3599999
-0.052000001 0.162 2.3570001
-0.050000001 0.161 2.3529999
-0.046999998 0.161 2.348
-0.045000002 0.16 2.345
-0.041999999 0.16 2.3429999
-0.039999999 0.16 2.342
-0.037999999 0.16 2.3410001
-0.035999998 0.16 2.3429999
-0.033 0.16 2.348
-0.030999999 0.161 2.3559999
-0.028999999 0.162 2.369
-0.027000001 0.163 2.3889999
-0.025 0.16500001 2.4170001
-0.023 0.167 2.4419999
-0.02 0.168 2.4619999
-0.017999999 0.169 2.477
-0.015 0.17 2.4860001
-0.013 0.17 2.4909999
-0.011 0.17 2.4920001
-0.0089999996 0.17 2.4920001
-0.0060000001 0.17 2.4920001
-0.0040000002 0.17 2.4890001
-0.001 0.17 2.483
0.001 0.169 2.474
0.0040000002 0.168 2.46
0.0060000001 0.167 2.4449999
0.0089999996 0.16599999 2.427
0.011 0.16500001 2.4159999
0.014 0.16500001 2.414
0.016000001 0.16500001 2.4130001
0.018999999 0.16500001 2.414
0.021 0.16599999 2.4170001
0.023 0.16599999 2.4219999
0.025 0.16599999 2.4260001
0.028000001 0.16599999 2.4289999
0.029999999 0.16599999 2.431
0.033 0.16599999 2.431
0.035 0.16599999 2.4300001
-1.108 0.81099999 11.553
-1.097 0.81099999 11.562
-1.086 0.81099999 11.564
-1.074 0.81099999 11.566
-1.063 0.81099999 11.567
-1.051 0.81099999 11.567
-1.04 0.81099999 11.566
-1.027 0.81099999 11.56
-1.015 0.81 11.549
-1.002 0.80900002 11.538
-0.99000001 0.80800003 11.529
-0.81 0.66500002 9.5080004
-0.46200001 0.38 5.474
-0.21600001 0.178 2.592
-0.071999997 0.059 0.86400002
0 0 0
0 0 0
0 0 0
0 0 0
0 0 0
0 0 0
-0.044 0.041999999 0.59899998
-0.132 0.126 1.7970001
-0.175 0.168 2.3940001
-0.17200001 0.168 2.391
-0.17 0.168 2.3889999
-0.167 0.168 2.388
-0.16500001 0.168 2.3889999
-0.162 0.168 2.392
-0.16 0.168 2.395
-0.15800001 0.168 2.3959999
-0.14399999 0.156 2.217
-0.119 0.131 1.86
-0.117 0.131 1.863
-0.138 0.156 2.227
-0.147 0.169 2.408
-0.145 0.168 2.405
-0.142 0.168 2.4030001
-0.14 0.168 2.402
-0.114 0.139 1.983
-0.064999998 0.079999998 1.147
-0.039999999 0.050000001 0.73000002
-0.039999999 0.050000001 0.73299998
-0.039000001 0.050000001 0.73500001
-0.037999999 0.050999999 0.736
-0.059 0.081 1.169
-0.101 0.142 2.0339999
-0.12 0.17299999 2.464
-0.118 0.17200001 2.4590001
-0.107 0.15899999 2.2679999
-0.086999997 0.133 1.89
-0.057999998 0.090000004 1.276
-0.018999999 0.029999999 0.42500001
0 0 0
0 0 0
0 0 0
0 0 0
0 0 0
0 0 0
-0.022 0.043000001 0.611
-0.064999998 0.12800001 1.832
-0.086000003 0.171 2.448
-0.083999999 0.17200001 2.457
-0.081 0.17200001 2.4519999
-0.078000002 0.17 2.4330001
-0.075000003 0.169 2.418
-0.072999999 0.168 2.405
-0.07 0.167 2.395
-0.068000004 0.167 2.388
-0.064999998 0.16599999 2.381
-0.061999999 0.16599999 2.3759999
-0.059999999 0.16599999 2.3729999
-0.057 0.16599999 2.3740001
-0.055 0.16599999 2.3729999
-0.052000001 0.16599999 2.369
-0.050000001 0.16500001 2.3640001
-0.048 0.16500001 2.359
-0.045000002 0.16500001 2.355
-0.043000001 0.16500001 2.3529999
-0.041000001 0.164 2.3510001
-0.037999999 0.164 2.349
-0.035999998 0.164 2.3499999
-0.033 0.164 2.355
-0.030999999 0.16500001 2.3640001
-0.028999999 0.16599999 2.378
-0.027000001 0.168 2.3959999
-0.025 0.17 2.4200001
-0.023 0.171 2.4400001
-0.02 0.17200001 2.4579999
-0.017999999 0.17299999 2.471
-0.015 0.17299999 2.4790001
-0.013 0.17399999 2.484
-0.011 0.17399999 2.4860001
-0.0089999996 0.17399999 2.4860001
-0.0060000001 0.17399999 2.4849999
-0.0040000002 0.17399999 2.4820001
-0.001 0.17299999 2.4749999
0.001 0.17200001 2.467
0.0040000002 0.17200001 2.457
0.0060000001 0.171 2.444
0.0089999996 0.17 2.4300001
0.011 0.169 2.421
0.014 0.169 2.4189999
0.016000001 0.169 2.4170001
0.018999999 0.169 2.4159999
0.021 0.169 2.418
0.023 0.169 2.421
0.025 0.17 2.424
0.028000001 0.17 2.425
0.029999999 0.17 2.4260001
0.033 0.17 2.427
0.035 0.17 2.427
-1.108 0.829 11.552
-1.097 0.82999998 11.56
-1.085 0.82999998 11.562
-1.074 0.82999998 11.563
-1.062 0.82999998 11.564
-1.051 0.82999998 11.564
-1.039 0.82999998 11.564
-1.027 0.829 11.558
-1.015 0.82800001 11.546
-1.002 0.82700002 11.537
-0.99000001 0.82700002 11.53
-0.85799998 0.72500002 10.085
-0.60600001 0.52100003 7.2030001
-0.36000001 0.31400001 4.3210001
-0.12 0.105 1.4400001
0 0 0
0 0 0
0 0 0
0 0 0
0 0 0
0 0 0
-0.044 0.043000001 0.59899998
-0.132 0.12899999 1.7970001
-0.175 0.17200001 2.3959999
-0.17200001 0.17200001 2.3940001
-0.17 0.17200001 2.392
-0.167 0.17200001 2.391
-0.16500001 0.17200001 2.392
-0.163 0.17200001 2.3940001
-0.16 0.17200001 2.395
-0.15800001 0.17200001 2.3959999
-0.156 0.17200001 2.3959999
-0.153 0.17200001 2.3970001
-0.15099999 0.17200001 2.398
-0.149 0.17200001 2.4000001
-0.146 0.17200001 2.398
-0.14399999 0.171 2.3940001
-0.124 0.149 2.0940001
-0.086999997 0.106 1.497
-0.052000001 0.063000001 0.89899999
-0.017000001 0.021 0.30000001
0 0 0
0 0 0
0 0 0
0 0 0
-0.015 0.022 0.30899999
-0.046 0.066 0.92699999
-0.075000003 0.11 1.544
-0.103 0.155 2.161
-0.116 0.177 2.464
-0.113 0.176 2.4519999
-0.097000003 0.154 2.1400001
-0.068000004 0.11 1.527
-0.052000001 0.088 1.219
-0.050999999 0.088 1.216
-0.050000001 0.088 1.2130001
-0.048999999 0.088 1.211
-0.046999998 0.088 1.21
-0.046 0.088 1.211
-0.056000002 0.11 1.518
-0.077 0.153 2.132
-0.086000003 0.175 2.4389999
-0.082999997 0.175 2.4400001
-0.079999998 0.17399999 2.428
-0.077 0.17200001 2.4030001
-0.074000001 0.171 2.3859999
-0.071999997 0.17 2.3759999
-0.068999998 0.169 2.3699999
-0.067000002 0.169 2.368
-0.064000003 0.169 2.369
-0.061999999 0.17 2.372
-0.059999999 0.17 2.3759999
-0.057 0.17 2.3800001
-0.055 0.17 2.382
-0.052999999 0.17 2.3829999
-0.050000001 0.17 2.381
-0.048 0.17 2.3770001
-0.046 0.17 2.372
-0.043000001 0.169 2.368
-0.041000001 0.169 2.365
-0.037999999 0.169 2.362
-0.035999998 0.169 2.362
-0.034000002 0.169 2.3640001
-0.030999999 0.169 2.3710001
-0.028999999 0.17 2.382
-0.027000001 0.171 2.398
-0.025 0.17299999 2.4189999
-0.023 0.17399999 2.437
-0.02 0.176 2.4519999
-0.017999999 0.176 2.4619999
-0.015 0.177 2.47
-0.013 0.177 2.474
-0.011 0.177 2.4760001
-0.0080000004 0.177 2.4760001
-0.0060000001 0.177 2.474
-0.0040000002 0.177 2.471
-0.001 0.176 2.4649999
0.001 0.176 2.4579999
0.0040000002 0.175 2.451
0.0060000001 0.175 2.4419999
0.0089999996 0.17399999 2.4319999
0.011 0.17399999 2.4260001
0.014 0.17399999 2.4230001
0.016000001 0.17299999 2.421
0.018999999 0.17299999 2.4189999
0.021 0.17299999 2.418
0.023 0.17299999 2.4200001
0.025 0.17299999 2.4200001
0.028000001 0.17299999 2.4189999
0.029999999 0.17299999 2.4200001
0.033 0.17299999 2.421
0.035 0.17299999 2.4219999
-1.107 0.847 11.545
-1.096 0.84799999 11.553
-1.084 0.84799999 11.555
-1.073 0.84799999 11.556
-1.062 0.84799999 11.557
-1.05 0.84799999 11.558
-1.039 0.84799999 11.559
-1.027 0.847 11.554
-1.0140001 0.84600002 11.542
-1.002 0.84600002 11.533
-0.99000001 0.84500003 11.528
-0.97799999 0.84500003 11.523
-0.96700001 0.84500003 11.521
-0.72100002 0.63300002 8.6400003
-0.23999999 0.211 2.8800001
0 0 0
0 0 0
0 0 0
0 0 0
-0.014 0.014 0.18099999
-0.041000001 0.039999999 0.54299998
-0.085000001 0.083999999 1.143
-0.146 0.145 1.9809999
-0.175 0.176 2.3989999
-0.17200001 0.176 2.3959999
-0.17 0.176 2.395
-0.167 0.176 2.395
-0.16500001 0.176 2.395
-0.163 0.176 2.3959999
-0.161 0.176 2.3970001
-0.15800001 0.176 2.398
-0.156 0.176 2.398
-0.153 0.176 2.3959999
-0.15099999 0.175 2.395
-0.148 0.175 2.395
-0.146 0.175 2.3940001
-0.14300001 0.175 2.3900001
-0.106 0.131 1.791
-0.035999998 0.044 0.597
0 0 0
0 0 0
0 0 0
0 0 0
0 0 0
0 0 0
0 0 0
0 0 0
-0.021 0.032000002 0.433
-0.061999999 0.093999997 1.3
-0.090000004 0.14 1.916
-0.105 0.167 2.2820001
-0.111 0.18000001 2.4590001
-0.108 0.17900001 2.4489999
-0.105 0.178 2.441
-0.102 0.178 2.434
-0.1 0.177 2.428
-0.097000003 0.177 2.4219999
-0.094999999 0.177 2.4200001
-0.092 0.177 2.4200001
-0.090000004 0.177 2.4230001
-0.088 0.178 2.4300001
-0.085000001 0.178 2.427
-0.082000002 0.177 2.415
-0.079000004 0.176 2.3989999
-0.075999998 0.17399999 2.3789999
-0.074000001 0.17299999 2.3670001
-0.071000002 0.17299999 2.362
-0.068999998 0.17200001 2.3599999
-0.066 0.17200001 2.3610001
-0.064000003 0.17299999 2.3640001
-0.061999999 0.17299999 2.3699999
-0.059999999 0.17399999 2.378
-0.057 0.17399999 2.3870001
-0.055 0.175 2.395
-0.052999999 0.176 2.402
-0.046999998 0.162 2.2219999
-0.037999999 0.13500001 1.855
-0.035 0.134 1.851
-0.039999999 0.161 2.21
-0.041000001 0.17399999 2.3870001
-0.039000001 0.17399999 2.3840001
-0.035999998 0.17399999 2.382
-0.034000002 0.17399999 2.382
-0.032000002 0.17399999 2.385
-0.028999999 0.175 2.391
-0.027000001 0.176 2.4030001
-0.025 0.177 2.4200001
-0.023 0.178 2.4330001
-0.02 0.17900001 2.444
-0.017999999 0.17900001 2.451
-0.015 0.18000001 2.4560001
-0.013 0.18000001 2.4590001
-0.0099999998 0.18000001 2.461
-0.0080000004 0.18000001 2.46
-0.0060000001 0.18000001 2.4579999
-0.0040000002 0.18000001 2.4549999
-0.001 0.17900001 2.4519999
0.001 0.17900001 2.448
0.0040000002 0.17900001 2.444
0.0060000001 0.178 2.4389999
0.0089999996 0.178 2.434
0.011 0.178 2.4300001
0.014 0.178 2.4260001
0.016000001 0.177 2.4230001
0.018999999 0.177 2.421
0.021 0.177 2.418
0.023 0.177 2.4159999
0.025 0.176 2.415
0.028000001 0.176 2.414
0.029999999 0.176 2.414
0.033 0.176 2.415
0.035 0.176 2.4159999
-1.0779999 0.84299999 11.244
-1.095 0.86500001 11.539
-1.084 0.86500001 11.542
-1.072 0.86500001 11.545
-1.061 0.86500001 11.548
-1.05 0.86500001 11.55
-1.039 0.866 11.554
-1.027 0.866 11.55
-1.0140001 0.86500001 11.539
-1.002 0.86400002 11.531
-0.99000001 0.86400002 11.526
-0.954 0.84100002 11.233
-0.89399999 0.796 10.652
-0.648 0.57999998 7.7709999
-0.21600001 0.19400001 2.5899999
0 0 0
0 0 0
0 0 0
0 0 0
-0.046 0.045000002 0.60399997
-0.13600001 0.13500001 1.811
-0.18099999 0.18000001 2.4119999
-0.178 0.18000001 2.4089999
-0.176 0.18000001 2.404
-0.17200001 0.18000001 2.398
-0.17 0.18000001 2.395
-0.167 0.18000001 2.395
-0.16500001 0.18000001 2.395
-0.163 0.18000001 2.3959999
-0.161 0.18000001 2.3970001
-0.15800001 0.18000001 2.398
-0.156 0.17900001 2.398
-0.153 0.17900001 2.398
-0.15099999 0.17900001 2.3970001
-0.148 0.17900001 2.3940001
-0.146 0.17900001 2.3929999
-0.14300001 0.17900001 2.3929999
-0.107 0.134 1.795
-0.035999998 0.045000002 0.59799999
0 0 0
0 0 0
0 0 0
0 0 0
0 0 0
0 0 0
0 0 0
0 0 0
0 0 0
0 0 0
-0.028000001 0.046 0.61799997
-0.083999999 0.138 1.853
-0.108 0.18000001 2.404
-0.1 0.17 2.2709999
-0.097000003 0.169 2.2620001
-0.1 0.177 2.375
-0.1 0.18099999 2.428
-0.097000003 0.18099999 2.421
-0.094999999 0.18000001 2.4170001
-0.092 0.18000001 2.415
-0.090000004 0.18000001 2.415
-0.086999997 0.18000001 2.415
-0.083999999 0.18000001 2.408
-0.081 0.17900001 2.3929999
-0.079000004 0.178 2.3789999
-0.075999998 0.177 2.3659999
-0.074000001 0.176 2.358
-0.071000002 0.176 2.3570001
-0.068999998 0.176 2.3559999
-0.066 0.176 2.358
-0.064000003 0.177 2.3629999
-0.061999999 0.177 2.372
-0.059999999 0.178 2.385
-0.057999998 0.17900001 2.402
-0.056000002 0.18000001 2.4170001
-0.054000001 0.18099999 2.428
-0.041000001 0.141 1.887
-0.017000001 0.059999999 0.79400003
-0.014 0.059 0.79100001
-0.034000002 0.14 1.878
-0.041999999 0.18099999 2.4200001
-0.039000001 0.18099999 2.4159999
-0.037 0.18099999 2.4130001
-0.034000002 0.18000001 2.411
-0.032000002 0.18000001 2.4119999
-0.028999999 0.18000001 2.415
-0.027000001 0.18099999 2.4200001
-0.025 0.18099999 2.425
-0.023 0.182 2.4289999
-0.02 0.182 2.4330001
-0.017999999 0.182 2.4349999
-0.015 0.182 2.437
-0.013 0.182 2.438
-0.0099999998 0.182 2.438
-0.0080000004 0.182 2.438
-0.0049999999 0.182 2.437
-0.003 0.182 2.437
-0.001 0.182 2.438
0.001 0.182 2.438
0.0040000002 0.182 2.437
0.0060000001 0.182 2.4360001
0.0089999996 0.182 2.4349999
0.011 0.182 2.4330001
0.014 0.182 2.4289999
0.016000001 0.18099999 2.425
0.018999999 0.18099999 2.421
0.021 0.18000001 2.4159999
0.023 0.18000001 2.4119999
0.025 0.18000001 2.4100001
0.028000001 0.18000001 2.4100001
0.029999999 0.18000001 2.4100001
0.033 0.18000001 2.4100001
0.035 0.18000001 2.4119999
-1.094 0.88300002 11.53
-1.0829999 0.88300002 11.533
-1.071 0.88300002 11.536
-1.0599999 0.88300002 11.538
-1.049 0.88300002 11.539
-1.038 0.88300002 11.542
-1.026 0.88300002 11.538
-1.013 0.88200003 11.53
-1.001 0.88200003 11.525
-0.99000001 0.88200003 11.522
-0.76200002 0.68300003 8.9280005
-0.31799999 0.285 3.744
-0.071999997 0.064999998 0.86299998
-0.024 0.022 0.28799999
0 0 0
0 0 0
0 0 0
0 0 0
-0.046 0.046 0.60399997
-0.13600001 0.138 1.813
-0.18099999 0.184 2.414
-0.178 0.184 2.4100001
-0.176 0.184 2.405
-0.17200001 0.184 2.4000001
-0.17 0.184 2.3970001
-0.168 0.184 2.398
-0.16599999 0.184 2.398
-0.163 0.184 2.3970001
-0.161 0.184 2.3959999
-0.15800001 0.184 2.3959999
-0.156 0.183 2.395
-0.153 0.183 2.395
-0.15099999 0.183 2.3970001
-0.149 0.183 2.402
-0.147 0.183 2.404
-0.14399999 0.183 2.4030001
-0.107 0.138 1.801
-0.035999998 0.046 0.60000002
0 0 0
0 0 0
0 0 0
0 0 0
0 0 0
0 0 0
0 0 0
0 0 0
0 0 0
0 0 0
-0.028000001 0.046999998 0.61799997
-0.085000001 0.141 1.855
-0.086999997 0.146 1.916
-0.035999998 0.061000001 0.80199999
-0.033 0.059999999 0.79000002
-0.078000002 0.14300001 1.8789999
-0.1 0.185 2.4200001
-0.097000003 0.185 2.414
-0.093999997 0.184 2.4089999
-0.090999998 0.184 2.405
-0.089000002 0.183 2.3970001
-0.086000003 0.182 2.385
-0.083999999 0.182 2.3789999
-0.081 0.182 2.378
-0.079000004 0.18099999 2.3729999
-0.075999998 0.18099999 2.3659999
-0.074000001 0.18000001 2.3599999
-0.071000002 0.18000001 2.3559999
-0.068999998 0.18000001 2.3529999
-0.066 0.18000001 2.3529999
-0.064000003 0.18000001 2.3610001
-0.061999999 0.182 2.378
-0.059999999 0.183 2.4000001
-0.059 0.185 2.427
-0.057 0.18700001 2.448
-0.055 0.18799999 2.46
-0.050999999 0.184 2.4070001
-0.046999998 0.175 2.2880001
-0.044 0.175 2.286
-0.044 0.184 2.402
-0.043000001 0.18799999 2.4579999
-0.039999999 0.18700001 2.4519999
-0.037999999 0.18700001 2.447
-0.035 0.186 2.441
-0.033 0.186 2.4389999
-0.029999999 0.186 2.4400001
-0.028000001 0.186 2.4360001
-0.025 0.185 2.427
-0.023 0.185 2.4200001
-0.02 0.185 2.4170001
-0.017999999 0.184 2.414
-0.015 0.184 2.411
-0.013 0.184 2.4089999
-0.0099999998 0.184 2.408
-0.0080000004 0.184 2.4089999
-0.0049999999 0.184 2.4119999
-0.003 0.184 2.418
-0.001 0.185 2.4260001
0.001 0.186 2.4319999
0.0040000002 0.186 2.4360001
0.0060000001 0.186 2.438
0.0089999996 0.186 2.4400001
0.011 0.186 2.4389999
0.014 0.186 2.4360001
0.016000001 0.185 2.4319999
0.018999999 0.185 2.425
0.021 0.184 2.418
0.023 0.184 2.4119999
0.025 0.184 2.408
0.028000001 0.184 2.408
0.029999999 0.184 2.4070001
0.033 0.184 2.4059999
0.035 0.184 2.408
-1.094 0.89999998 11.523
-1.0829999 0.89999998 11.526
-1.071 0.90100002 11.529
-1.0599999 0.90100002 11.532
-1.048 0.90100002 11.534
-1.0369999 0.90100002 11.536
-1.025 0.90100002 11.533
-1.013 0.89999998 11.526
-1.001 0.89999998 11.521
-0.98900002 0.89999998 11.517
-0.73699999 0.67500001 8.6359997
-0.24600001 0.22499999 2.8789999
0 0 0
0 0 0
0 0 0
0 0 0
-0.033 0.033 0.42199999
-0.097999997 0.1 1.267
-0.14399999 0.147 1.8710001
-0.169 0.175 2.234
-0.18099999 0.18799999 2.415
-0.178 0.18799999 2.4119999
-0.176 0.18799999 2.4070001
-0.17200001 0.18799999 2.401
-0.17 0.18799999 2.398
-0.167 0.18799999 2.398
-0.16500001 0.18700001 2.3970001
-0.163 0.18700001 2.3940001
-0.16 0.18700001 2.3940001
-0.15800001 0.18700001 2.395
-0.156 0.18700001 2.3959999
-0.153 0.18700001 2.3989999
-0.15099999 0.18700001 2.402
-0.149 0.18700001 2.4070001
-0.147 0.18799999 2.4089999
-0.14399999 0.18799999 2.4100001
-0.107 0.141 1.808
-0.035999998 0.046999998 0.602
0 0 0
0 0 0
0 0 0
0 0 0
0 0 0
0 0 0
0 0 0
0 0 0
0 0 0
0 0 0
-0.0080000004 0.014 0.186
-0.025 0.043000001 0.55699998
-0.025 0.043000001 0.55699998
-0.0080000004 0.014 0.186
-0.025 0.046999998 0.60399997
-0.075000003 0.141 1.813
-0.098999999 0.18799999 2.4130001
-0.096000001 0.18700001 2.404
-0.093999997 0.18700001 2.395
-0.090999998 0.186 2.3889999
-0.088 0.186 2.382
-0.086000003 0.185 2.3770001
-0.083999999 0.185 2.3729999
-0.081 0.185 2.3710001
-0.079000004 0.185 2.369
-0.075999998 0.185 2.3659999
-0.074000001 0.184 2.3629999
-0.071000002 0.184 2.3599999
-0.057 0.15099999 1.9450001
-0.032000002 0.086000003 1.119
-0.018999999 0.054000001 0.708
-0.018999999 0.055 0.713
-0.028000001 0.089000002 1.154
-0.048999999 0.15800001 2.03
-0.057999998 0.193 2.4719999
-0.055 0.19400001 2.4809999
-0.052999999 0.19400001 2.487
-0.050000001 0.19400001 2.4879999
-0.048 0.19400001 2.4879999
-0.045000002 0.19400001 2.4849999
-0.043000001 0.19400001 2.4820001
-0.039999999 0.193 2.4779999
-0.037999999 0.193 2.474
-0.035 0.192 2.4679999
-0.033 0.192 2.461
-0.029999999 0.191 2.4530001
-0.028000001 0.191 2.4419999
-0.025 0.189 2.427
-0.023 0.18799999 2.414
-0.02 0.18700001 2.402
-0.017999999 0.186 2.392
-0.015 0.186 2.3840001
-0.013 0.185 2.3800001
-0.0099999998 0.185 2.3789999
-0.0080000004 0.186 2.3829999
-0.0049999999 0.186 2.392
-0.003 0.18700001 2.4030001
-0.001 0.18799999 2.415
0.001 0.189 2.4260001
0.0040000002 0.19 2.434
0.0060000001 0.19 2.4400001
0.0089999996 0.19 2.444
0.011 0.19 2.4430001
0.014 0.19 2.437
0.016000001 0.189 2.431
0.018999999 0.189 2.425
0.021 0.18799999 2.4170001
0.023 0.18799999 2.408
0.025 0.18799999 2.404
0.028000001 0.18799999 2.405
0.029999999 0.18799999 2.405
0.033 0.18799999 2.404
0.035 0.18799999 2.4070001
-0.68099999 0.56999999 7.1999998
-0.94499999 0.80199999 10.08
-1.071 0.91900003 11.522
-1.059 0.91900003 11.524
-1.048 0.91900003 11.527
-1.036 0.91900003 11.529
