ply
format ascii 1.0
comment PCL generated
element vertex 1450
property float x
property float y
property float z
element face 0
element camera 0
property float view_px
property float view_py
property float view_pz
property float x_axisx
property float x_axisy
property float x_axisz
property float y_axisx
property float y_axisy
property float y_axisz
property float z_axisx
property float z_axisy
property float z_axisz
property float focal
property float scalex
property float scaley
property float centerx
property float centery
property int viewportx
property int viewporty
property float k1
property float k2
end_header
0.17640796 -0.14948617 0.17299999
0.19946834 -0.16712461 0.192
0.22123003 -0.18329452 0.20900001
0.24591568 -0.20150447 0.228
0.25938797 -0.21022972 0.236
0.28226799 -0.2263099 0.252
0.014841183 -0.011772232 0.013
0.040728904 -0.031966202 0.035
0.074736841 -0.058045641 0.063000001
0.088294044 -0.067867279 0.072999999
0.10113376 -0.076942451 0.082000002
0.1923245 -0.1405776 0.14399999
0.22354425 -0.16181014 0.164
0.25602123 -0.18353565 0.184
0.10930769 -0.094611451 0.114
0.13380881 -0.11446896 0.13699999
0.15620467 -0.13208885 0.15700001
0.17432863 -0.14573637 0.17200001
0.19514942 -0.16130584 0.189
0.21775316 -0.1779861 0.207
0.23900914 -0.19320977 0.223
0.25554794 -0.20433033 0.234
0.28043935 -0.22181809 0.252
0.011341219 -0.0088749519 0.0099999998
0.039301008 -0.030430412 0.034000002
0.069516852 -0.053264853 0.059
0.086484142 -0.065581463 0.071999997
0.10287429 -0.077213302 0.083999999
0.13755949 -0.10117974 0.108
0.16370536 -0.11921779 0.126
0.19750687 -0.1424225 0.149
0.22318581 -0.15937622 0.16500001
0.24574122 -0.1737949 0.178
0.2818757 -0.19745103 0.2
0.13206844 -0.11143918 0.13600001
0.15529542 -0.12952891 0.15700001
0.17430833 -0.14373191 0.17299999
0.19398366 -0.15815531 0.189
0.21643479 -0.17449559 0.207
0.23328122 -0.18600729 0.219
0.25395703 -0.20028858 0.234
0.0011058256 -0.00086274045 0.001
0.018029625 -0.013916443 0.016000001
0.040193591 -0.030697018 0.035
0.069057256 -0.052190941 0.059
0.091868728 -0.068714336 0.077
0.10338818 -0.076540478 0.085000001
0.11285707 -0.082705684 0.090999998
0.1340584 -0.097259425 0.106
0.15607911 -0.11211339 0.121
0.18948244 -0.13477202 0.14399999
0.2228651 -0.156976 0.16599999
0.24524561 -0.17107807 0.17900001
0.28668743 -0.19808167 0.205
0.31125426 -0.21302646 0.21799999
0.15342949 -0.12620308 0.156
0.179316 -0.14581664 0.17900001
0.19999574 -0.16080229 0.19599999
0.21515639 -0.17106633 0.207
0.22870791 -0.17983915 0.21600001
0.24486421 -0.19044691 0.227
0.27145657 -0.20885579 0.24699999
0.010078272 -0.007671501 0.0089999996
0.035374157 -0.026642688 0.030999999
0.065123543 -0.048537362 0.056000002
0.087711453 -0.064697623 0.074000001
0.1014921 -0.074097708 0.083999999
0.11578907 -0.083680876 0.093999997
0.13690405 -0.097950339 0.109
0.15882914 -0.11251093 0.124
0.18813215 -0.13196097 0.14399999
0.22524659 -0.15645915 0.169
0.24615309 -0.16933617 0.18099999
0.28869227 -0.19670798 0.208
0.31878287 -0.21516132 0.22499999
0.14866622 -0.12057056 0.152
0.2423418 -0.18584232 0.226
0.26545644 -0.20137563 0.243
0.0089038694 -0.0066825217 0.0080000004
0.028351078 -0.021053718 0.025
0.057780772 -0.04246087 0.050000001
0.078907728 -0.057387691 0.067000002
0.10083409 -0.072585016 0.083999999
0.12359176 -0.088067397 0.101
0.13972932 -0.098569825 0.112
0.16283476 -0.11373086 0.12800001
0.19071895 -0.13189942 0.147
0.22630222 -0.15498796 0.171
0.24708229 -0.16759163 0.183
0.285198 -0.19160172 0.207
0.31499472 -0.20962274 0.22400001
0.34885073 -0.22998323 0.243
0.24947067 -0.18858875 0.234
0.26933137 -0.20140973 0.248
0.018808283 -0.013915236 0.017000001
0.037197709 -0.027230477 0.033
0.058575541 -0.042432774 0.050999999
0.077246659 -0.055380702 0.066
0.093040116 -0.066022106 0.078000002
0.11550319 -0.081133276 0.094999999
0.1363381 -0.094809763 0.11
0.16554448 -0.11397906 0.131
0.18814139 -0.12826626 0.146
0.22474521 -0.15173249 0.171
0.24803273 -0.16584349 0.185
0.30991173 -0.20330665 0.222
0.34198931 -0.22225286 0.23999999
0.011638848 -0.0074938443 0.0080000004
0.19869 -0.15303312 0.198
0.21052438 -0.16034314 0.206
0.23106445 -0.17404991 0.222
0.25654575 -0.19113968 0.242
0.27535114 -0.20294116 0.255
0.021999147 -0.016041204 0.02
0.038099553 -0.027488345 0.034000002
0.053659145 -0.03831055 0.046999998
0.074451827 -0.052607004 0.064000003
0.092467271 -0.06466905 0.078000002
0.11478049 -0.079462521 0.094999999
0.13300778 -0.091159493 0.108
0.24900396 -0.16409084 0.18700001
0.28119513 -0.18353881 0.207
0.32019258 -0.20702043 0.23100001
0.34659445 -0.22199579 0.245
0.0086649023 -0.0054985271 0.0060000001
0.017490352 -0.0149583 0.021
0.21447958 -0.16096483 0.211
0.26356959 -0.19349882 0.25
0.0053689484 -0.0038991468 0.0049999999
0.05334688 -0.037530161 0.046999998
0.072855473 -0.050725587 0.063000001
0.089555591 -0.061715998 0.075999998
0.11287973 -0.077002846 0.093999997
0.2752451 -0.17702535 0.204
0.30972627 -0.19732207 0.22499999
0.3455644 -0.21809591 0.24600001
0.014338061 -0.0089653758 0.0099999998
0.040987309 -0.025393626 0.028000001
0.011397507 -0.0097261705 0.014
0.019067483 -0.016064931 0.023
0.035455275 -0.029497821 0.041999999
0.049855318 -0.040964954 0.057999998
0.060391147 -0.049015425 0.068999998
0.23374307 -0.17091408 0.227
0.26320449 -0.19036084 0.25099999
0.017087236 -0.012225127 0.016000001
0.055301365 -0.038327314 0.048999999
0.07128606 -0.048895687 0.061999999
0.27745306 -0.17579466 0.207
0.30628049 -0.19222815 0.22400001
0.33622557 -0.20904955 0.241
0.0042714328 -0.0026311849 0.003
0.039242484 -0.02395143 0.027000001
0.060845032 -0.036798853 0.041000001
0.010536003 -0.0088554611 0.013
0.020631826 -0.017120896 0.025
0.03361281 -0.02754337 0.039999999
0.051336717 -0.0415463 0.059999999
0.060109925 -0.048051726 0.068999998
0.071844473 -0.056738764 0.081
0.081274942 -0.063420579 0.090000004
0.25869778 -0.18428075 0.248
0.015934328 -0.011228407 0.015
0.027046556 -0.018855758 0.025
0.069742441 -0.047115706 0.061000001
0.089688927 -0.059971832 0.077
0.27966881 -0.17452674 0.20999999
0.30835474 -0.19061191 0.227
0.33814493 -0.20707272 0.244
0.0070707477 -0.0042898743 0.0049999999
0.040414333 -0.024294704 0.028000001
0.19969119 -0.16742273 0.252
0.012103721 -0.01001742 0.015
0.019719061 -0.016113011 0.024
0.032626331 -0.026325842 0.039000001
0.047698505 -0.03801113 0.056000002
0.058102097 -0.045735799 0.067000002
0.072397202 -0.056300186 0.082000002
0.084492899 -0.064922526 0.093999997
0.25115007 -0.17616597 0.242
0.0073975469 -0.0051330258 0.0070000002
0.023676148 -0.016253406 0.022
0.070497669 -0.046896916 0.061999999
0.085715495 -0.056437638 0.074000001
0.21387036 -0.13397588 0.168
0.24010801 -0.14896475 0.185
0.27130502 -0.16671555 0.205
0.29964471 -0.18239221 0.222
0.33044609 -0.19926029 0.23999999
0.009833659 -0.0058748173 0.0070000002
0.05161133 -0.030550694 0.035999998
0.2004229 -0.1654245 0.25400001
0.014462343 -0.011783455 0.017999999
0.021270109 -0.017110283 0.026000001
0.03664881 -0.029111918 0.044
0.047488645 -0.037255682 0.056000002
0.057843938 -0.044824883 0.067000002
0.071193323 -0.054503474 0.081
0.082320116 -0.062269863 0.092
0.095646061 -0.07149706 0.105
0.10942561 -0.08084435 0.118
0.26391619 -0.18028025 0.25099999
0.017130932 -0.011577394 0.016000001
0.037071325 -0.024789343 0.034000002
0.052190106 -0.03453511 0.046999998
0.073514357 -0.048143543 0.064999998
0.08985927 -0.058246337 0.078000002
0.12088163 -0.077562444 0.103
0.18873249 -0.11753283 0.152
0.22020786 -0.13580152 0.17399999
0.24254376 -0.14813671 0.18799999
0.27228573 -0.16471715 0.207
0.29510623 -0.17683716 0.22
0.32425696 -0.19248855 0.237
0.0041873301 -0.0024627009 0.003
0.044151794 -0.025728799 0.030999999
0.18752322 -0.15434358 0.243
0.19959283 -0.16213852 0.25400001
0.010401378 -0.0083409138 0.013
0.017921889 -0.014189268 0.022
0.034834038 -0.027233506 0.041999999
0.050662015 -0.039117761 0.059999999
0.060171667 -0.04589254 0.07
0.071756266 -0.054067146 0.082000002
0.0819555 -0.061015297 0.092
0.095217906 -0.070053272 0.105
0.11262292 -0.081892893 0.122
0.1306234 -0.093887784 0.139
0.019176137 -0.012754967 0.017999999
0.033629354 -0.022132671 0.030999999
0.053027131 -0.034534968 0.048
0.076507129 -0.049312387 0.068000004
0.091676615 -0.058486078 0.079999998
0.1202335 -0.075928487 0.103
0.14389351 -0.089960247 0.121
0.18890554 -0.1157831 0.153
0.21391501 -0.12983774 0.17
0.2385672 -0.14340723 0.186
0.26805803 -0.1595991 0.205
0.28799367 -0.16985005 0.21600001
0.31954595 -0.18669657 0.235
0.035379142 -0.020291099 0.025
0.11498506 -0.0647595 0.078000002
0.15051536 -0.08401347 0.1
0.19878501 -0.15889202 0.25400001
0.0079683913 -0.0062873927 0.0099999998
0.016225498 -0.012640125 0.02
0.031385455 -0.02414378 0.037999999
0.047086041 -0.035773452 0.056000002
0.058204722 -0.043680269 0.068000004
0.073191702 -0.054264098 0.083999999
0.087809741 -0.064325102 0.098999999
0.10021895 -0.072549872 0.111
0.11488252 -0.082195945 0.125
0.13003983 -0.091969021 0.139
0.14760959 -0.10320631 0.155
0.03562241 -0.023068285 0.033
0.051662702 -0.033106614 0.046999998
0.079477124 -0.050404921 0.071000002
0.094624788 -0.059398491 0.082999997
0.11496025 -0.07143376 0.098999999
0.14076406 -0.086591981 0.119
0.15907508 -0.09688621 0.132
0.18909831 -0.11404191 0.154
0.21397442 -0.12779029 0.171
0.23466454 -0.13879824 0.184
0.27171245 -0.15917951 0.20900001
0.34602666 -0.19708203 0.25099999
0.02390844 -0.013492274 0.017000001
0.076057471 -0.042531367 0.052999999
0.1186365 -0.065743946 0.081
0.16298079 -0.089511678 0.109
0.187805 -0.10223311 0.123
0.010317585 -0.0080082929 0.013
0.019392224 -0.014860825 0.024
0.035370857 -0.026766051 0.043000001
0.051079851 -0.038175099 0.061000001
0.060520958 -0.044678111 0.071000002
0.072017998 -0.05252349 0.082999997
0.085672401 -0.061736293 0.097000003
0.098892212 -0.070422381 0.11
0.11530209 -0.081151277 0.126
0.13413003 -0.093315318 0.14399999
0.051410753 -0.032408059 0.046999998
0.07685627 -0.047948115 0.068999998
0.097552948 -0.060238235 0.086000003
0.11784057 -0.072029762 0.102
0.14121279 -0.085451797 0.12
0.15584175 -0.093369462 0.13
0.18442473 -0.10941003 0.15099999
0.2140577 -0.12575574 0.17200001
0.23590596 -0.13725756 0.186
0.27147934 -0.15644991 0.20999999
0.28466633 -0.16250083 0.21600001
0.31578654 -0.17858015 0.235
0.34945664 -0.19579042 0.255
0.016774563 -0.0093120579 0.012
0.058474466 -0.032165773 0.041000001
0.10188118 -0.055538177 0.07
0.14707941 -0.079461217 0.098999999
0.1789919 -0.095846809 0.118
0.0063245418 -0.004827626 0.0080000004
0.01770632 -0.013344007 0.022
0.030314634 -0.022559727 0.037
0.049207252 -0.036166154 0.059
0.064521067 -0.046841759 0.075999998
0.076908834 -0.05516091 0.089000002
0.092355743 -0.065449469 0.105
0.10295655 -0.07210166 0.115
0.11299409 -0.078208953 0.124
0.13170417 -0.090109162 0.142
0.15293448 -0.10344307 0.162
0.17392157 -0.11631414 0.18099999
0.056609489 -0.035093814 0.052000001
0.077594168 -0.0476062 0.07
0.095946923 -0.05826465 0.085000001
0.11955468 -0.071866408 0.104
0.14284278 -0.085005611 0.122
0.16577783 -0.097676389 0.139
0.19318566 -0.11270801 0.15899999
0.21787797 -0.12587871 0.176
0.2384223 -0.13642257 0.189
0.2738519 -0.15520157 0.213
0.28832445 -0.16186115 0.22
0.31132498 -0.17313908 0.233
0.33790213 -0.18617894 0.248
0.0027793196 -0.0015173098 0.0020000001
0.043947328 -0.023773957 0.030999999
0.092579007 -0.049630802 0.064000003
0.13139831 -0.069812648 0.089000002
0.16880925 -0.088895835 0.112
0.2047039 -0.10685302 0.133
0.029381026 -0.021496508 0.035999998
0.040707212 -0.02941468 0.048999999
0.060883887 -0.043456379 0.071999997
0.075741522 -0.053408299 0.088
0.094611987 -0.065918587 0.108
0.10877924 -0.074895665 0.122
0.11706714 -0.07966274 0.12899999
0.131157 -0.088222712 0.142
0.14947188 -0.099397369 0.15899999
0.16839874 -0.11072283 0.176
0.19282477 -0.12537168 0.198
0.10335324 -0.061704561 0.092
0.12355228 -0.073017865 0.108
0.14563656 -0.085207656 0.125
0.17088462 -0.098988563 0.14399999
0.19946 -0.11440754 0.16500001
0.22291392 -0.12661785 0.18099999
0.24344866 -0.13695109 0.19400001
0.26983604 -0.15034844 0.211
0.28806573 -0.15899058 0.221
0.31625175 -0.172915 0.23800001
0.34142348 -0.18494877 0.252
0.0069085308 -0.0037080008 0.0049999999
0.038053419 -0.020238625 0.027000001
0.077648878 -0.04092532 0.054000001
0.11592671 -0.060554415 0.079000004
0.19423372 -0.099678852 0.127
0.046344869 -0.032914441 0.056000002
0.064018622 -0.044910666 0.075999998
0.078876153 -0.054665387 0.092
0.095985323 -0.065729223 0.11
0.10834734 -0.073319741 0.122
0.11840524 -0.079192333 0.131
0.1315451 -0.086967207 0.14300001
0.14885922 -0.097293325 0.15899999
0.16388941 -0.10591105 0.17200001
0.18619767 -0.1189879 0.192
0.11181843 -0.065614253 0.1
0.13207857 -0.076718912 0.116
0.15189674 -0.08734706 0.131
0.18068269 -0.10287033 0.153
0.20449004 -0.11528223 0.17
0.22792292 -0.12724397 0.186
0.24595299 -0.13598831 0.197
0.26589257 -0.14561176 0.20900001
0.28524956 -0.15473764 0.22
0.31719705 -0.17045902 0.23999999
0.012366097 -0.006523456 0.0089999996
0.03643604 -0.019046241 0.026000001
0.18239959 -0.092001021 0.12
0.13824682 -0.1056224 0.19
0.042874079 -0.029918488 0.052000001
0.059581805 -0.041069262 0.071000002
0.077722393 -0.052926466 0.090999998
0.10083255 -0.06784448 0.116
0.11323541 -0.075291336 0.12800001
0.12424391 -0.081648335 0.138
0.13468972 -0.087493405 0.147
0.14733143 -0.094615594 0.15800001
0.16227771 -0.10304078 0.171
0.18157287 -0.11400909 0.18799999
0.20642026 -0.12818377 0.20999999
0.13713862 -0.07826896 0.121
0.1534967 -0.08672785 0.133
0.17982747 -0.10059796 0.153
0.20590113 -0.1140535 0.17200001
0.23412627 -0.12842774 0.192
0.25094354 -0.13632795 0.20200001
0.33909029 -0.17738774 0.25299999
0.016398765 -0.0084999297 0.012
0.044596687 -0.022905497 0.032000002
0.079608016 -0.040519431 0.056000002
0.1813091 -0.089855969 0.12
0.13244942 -0.10076275 0.186
0.14139789 -0.1061127 0.19499999
0.14470977 -0.10714609 0.19599999
0.051838055 -0.035097435 0.061999999
0.071477696 -0.047810219 0.083999999
0.093527049 -0.061812226 0.108
0.11016326 -0.071948692 0.125
0.12645994 -0.081629768 0.141
0.13873337 -0.088520773 0.152
0.15511614 -0.097847022 0.167
0.16636378 -0.10376059 0.176
0.17796266 -0.10975913 0.185
0.22716582 -0.13705409 0.228
0.24945326 -0.1488795 0.24600001
0.15624601 -0.086714447 0.13600001
0.17314866 -0.09514267 0.148
0.20136261 -0.1095599 0.169
0.22937177 -0.12358665 0.189
0.24849418 -0.13260135 0.20100001
0.26702893 -0.14113374 0.212
0.0053333533 -0.0027405089 0.0040000002
0.024468422 -0.012457551 0.017999999
0.049901675 -0.025175303 0.035999998
0.11970986 -0.059314925 0.082999997
0.15305845 -0.075167775 0.104
0.17725062 -0.08628536 0.118
0.20396489 -0.098426901 0.133
0.24744666 -0.11838114 0.15800001
0.12846023 -0.095962241 0.18099999
0.13947867 -0.10278123 0.193
0.14201355 -0.10325 0.193
0.14982663 -0.10749326 0.2
0.047486722 -0.031570435 0.057
0.064436279 -0.04232163 0.075999998
0.081968583 -0.053194456 0.094999999
0.10097627 -0.064757057 0.115
0.12152092 -0.077024393 0.13600001
0.13548309 -0.084885001 0.149
0.14989929 -0.092847876 0.162
0.160074 -0.09803386 0.17
0.17152099 -0.10387491 0.17900001
0.2504679 -0.14678422 0.248
0.17819439 -0.096146099 0.153
0.19214201 -0.10265414 0.162
0.22106153 -0.11695695 0.183
0.23748095 -0.12443478 0.193
0.26324424 -0.13661946 0.20999999
0.28610122 -0.14708009 0.22400001
0.30847549 -0.1570994 0.237
0.0026532388 -0.0013387155 0.0020000001
0.022990488 -0.011493595 0.017000001
0.11619074 -0.056530949 0.081
0.14196548 -0.068460144 0.097000003
0.16579308 -0.079249457 0.111
0.18906525 -0.089588135 0.124
0.23820378 -0.11189994 0.153
0.12733561 -0.09337195 0.18000001
0.13686137 -0.098996915 0.19
0.14594564 -0.10415647 0.199
0.15231527 -0.10726807 0.204
0.16721621 -0.11622862 0.22
0.18027024 -0.1236916 0.233
0.064208761 -0.041396245 0.075999998
0.079956897 -0.05093421 0.093000002
0.10148766 -0.063887492 0.116
0.12285964 -0.076440103 0.138
0.13679728 -0.084131405 0.15099999
0.15210842 -0.092482679 0.16500001
0.16603991 -0.099816546 0.177
0.17850694 -0.10611656 0.18700001
0.20010681 -0.11764735 0.206
0.2243944 -0.13049001 0.227
0.24445398 -0.14062388 0.243
0.0030713768 -0.0017480036 0.003
0.1889272 -0.099079341 0.16
0.21645693 -0.11241359 0.18000001
0.23639283 -0.12158547 0.193
0.26201841 -0.1334811 0.20999999
0.0066005783 -0.0032690989 0.0049999999
0.033640776 -0.016508507 0.025
0.049388435 -0.024015946 0.035999998
0.11272315 -0.053834632 0.079000004
0.14120062 -0.066838294 0.097000003
0.15893997 -0.074575588 0.107
0.17435892 -0.08109919 0.115
0.21981147 -0.10135962 0.142
0.27823755 -0.12720543 0.176
0.12049419 -0.087906845 0.17399999
0.12904745 -0.092853509 0.183
0.13857828 -0.098359957 0.193
0.14840007 -0.10392296 0.20299999
0.1540539 -0.10645892 0.207
0.17273021 -0.11781084 0.228
0.18738732 -0.12616497 0.243
0.0023546615 -0.001565238 0.003
0.078822121 -0.049270168 0.092
0.095900416 -0.05923868 0.11
0.11266556 -0.0687837 0.127
0.12637758 -0.076266356 0.14
0.14512809 -0.086584643 0.15800001
0.16356313 -0.096484534 0.175
0.18260181 -0.10651616 0.192
0.22649957 -0.12924534 0.23
0.24852848 -0.14028797 0.248
0.0071387659 -0.0039867107 0.0070000002
0.025946856 -0.014337488 0.025
0.18693471 -0.096196793 0.15899999
0.20592861 -0.1049412 0.17200001
0.23046094 -0.11631257 0.189
0.25958878 -0.12976447 0.20900001
0.0026276382 -0.0012770072 0.0020000001
0.026781939 -0.012896312 0.02
0.038223248 -0.018238274 0.028000001
0.070987768 -0.03356671 0.050999999
0.093690053 -0.043905977 0.066
0.12453236 -0.057843216 0.086000003
0.15365812 -0.070745759 0.104
0.17039211 -0.077768378 0.113
0.21243007 -0.096119545 0.138
0.26250792 -0.1177642 0.167
0.1201241 -0.085962802 0.17399999
0.12794527 -0.090301901 0.182
0.13599902 -0.094685346 0.19
0.14939152 -0.10261887 0.205
0.15801747 -0.10711206 0.213
0.17293429 -0.115697 0.229
0.19216533 -0.12691048 0.25
0.010170443 -0.0066315583 0.013
0.096440859 -0.05843458 0.111
0.11139189 -0.06670706 0.126
0.12323751 -0.072950736 0.13699999
0.13820885 -0.080881484 0.15099999
0.1573918 -0.09107063 0.169
0.17815295 -0.10193592 0.18799999
0.023779826 -0.012889048 0.023
0.03682724 -0.019752707 0.035
0.21220145 -0.10607212 0.178
0.23067476 -0.11419656 0.19
0.25102425 -0.12308615 0.20299999
0.28090373 -0.13643675 0.223
0.30544052 -0.14696707 0.23800001
0.0026154462 -0.0012468006 0.0020000001
0.022657132 -0.010701677 0.017000001
0.036680866 -0.017167972 0.027000001
0.06648466 -0.03083685 0.048
0.086159825 -0.039605748 0.061000001
0.11237272 -0.051198151 0.078000002
0.21434227 -0.095131949 0.14
0.2673097 -0.11762737 0.171
0.10678894 -0.075990304 0.15800001
0.12114071 -0.085002139 0.176
0.13176426 -0.091186307 0.18799999
0.13558544 -0.092559166 0.19
0.14675425 -0.098844238 0.20200001
0.15826915 -0.1051935 0.214
0.1746546 -0.11457247 0.23199999
0.19309494 -0.12504105 0.252
0.01013827 -0.0064818496 0.013
0.021429356 -0.013529059 0.027000001
0.14320625 -0.082174011 0.15700001
0.15870082 -0.090039827 0.171
0.17847113 -0.10012938 0.189
0.24869037 -0.13501632 0.25
0.011134573 -0.0059806472 0.011
0.025751362 -0.013685844 0.025
0.036688332 -0.019294992 0.035
0.052273232 -0.027207514 0.048999999
0.2809324 -0.13379341 0.22400001
0.30280793 -0.14286295 0.237
0.025206368 -0.011673902 0.018999999
0.045974698 -0.021098776 0.034000002
0.075817443 -0.034480728 0.055
0.26742887 -0.11538791 0.17200001
0.32073608 -0.13721675 0.20200001
0.11726157 -0.081785366 0.17399999
0.12559055 -0.086374342 0.183
0.13487032 -0.091482162 0.193
0.14158669 -0.094736375 0.199
0.14921305 -0.098504342 0.206
0.15926729 -0.10375457 0.21600001
0.17337389 -0.11147361 0.23100001
0.011661921 -0.0073079108 0.015
0.026109956 -0.016156703 0.033
0.12687781 -0.072180502 0.142
0.14090791 -0.079249404 0.155
0.15446338 -0.085895233 0.167
0.17597789 -0.09676978 0.18700001
0.19532533 -0.10622638 0.204
0.21919483 -0.11790957 0.22499999
0.24780953 -0.13186616 0.25
0.015129089 -0.0079648104 0.015
0.033868473 -0.017642289 0.033
0.049086209 -0.025302546 0.046999998
0.064832717 -0.033074383 0.061000001
0.073553361 -0.037139788 0.068000004
0.28223798 -0.13174562 0.226
0.30277354 -0.1400097 0.23800001
0.32921156 -0.15082489 0.25400001
0.017169444 -0.0077938084 0.013
0.044419609 -0.019980242 0.033
0.082326874 -0.036697507 0.059999999
0.1077204 -0.047588017 0.077
0.13838491 -0.06059381 0.097000003
0.27222046 -0.11512243 0.176
0.31902665 -0.13377453 0.20200001
0.12454813 -0.083921798 0.182
0.13517988 -0.089834228 0.19400001
0.14117715 -0.092548333 0.199
0.14877822 -0.096227199 0.206
0.15879962 -0.10135377 0.21600001
0.17136423 -0.10794894 0.229
0.19040671 -0.11840276 0.25
0.010851724 -0.0066624167 0.014
0.025241971 -0.015303111 0.032000002
0.038529526 -0.023069697 0.048
0.14407207 -0.079387158 0.15899999
0.15579739 -0.084881589 0.169
0.17632872 -0.094998039 0.18799999
0.19657512 -0.1047399 0.206
0.21941823 -0.11563818 0.226
0.24497907 -0.1277186 0.248
0.011055942 -0.0057025393 0.011
0.025567297 -0.013048303 0.025
0.042666733 -0.021547852 0.041000001
0.058243997 -0.029111091 0.055
0.07543885 -0.037320014 0.07
0.30277014 -0.13717118 0.23899999
0.0064528892 -0.0028964221 0.0049999999
0.023669861 -0.01052686 0.017999999
0.048243597 -0.021260587 0.035999998
0.083322279 -0.036388628 0.061000001
0.11697429 -0.050629023 0.083999999
0.14767781 -0.06335257 0.104
0.17813769 -0.075749405 0.123
0.20241515 -0.085324705 0.13699999
0.27237973 -0.11285561 0.177
0.31894642 -0.13103077 0.20299999
0.37387586 -0.15230779 0.233
0.1207898 -0.07970617 0.177
0.13271686 -0.086373411 0.191
0.13936421 -0.089470439 0.197
0.14619507 -0.092600912 0.20299999
0.15907812 -0.099431753 0.21699999
0.17161614 -0.10587181 0.23
0.18909366 -0.11515444 0.249
0.0085013639 -0.0051114685 0.011
0.021234969 -0.012607594 0.027000001
0.038414691 -0.022525255 0.048
0.045602791 -0.026413269 0.056000002
0.05220031 -0.029869456 0.063000001
0.16172887 -0.086290918 0.176
0.17856048 -0.094210863 0.191
0.19497837 -0.1017406 0.205
0.21481903 -0.11087292 0.222
0.23726474 -0.12113861 0.241
0.0060100206 -0.0030357968 0.0060000001
0.026498545 -0.013243888 0.026000001
0.047703326 -0.023593232 0.046
0.061204419 -0.029958105 0.057999998
0.071947873 -0.034856912 0.067000002
0.085242122 -0.040879928 0.078000002
0.2873776 -0.12870856 0.23199999
0.29901189 -0.13266683 0.237
0.32644707 -0.14349754 0.25400001
0.02095109 -0.0091250185 0.016000001
0.12338482 -0.052299175 0.089000002
0.15548848 -0.065323733 0.11
0.18019602 -0.075039923 0.125
0.2088116 -0.086200573 0.142
0.22956039 -0.093949452 0.153
0.26797667 -0.1087349 0.175
0.32046986 -0.12893365 0.205
0.36397395 -0.1452073 0.228
0.13166183 -0.083877273 0.19
0.14109769 -0.088670418 0.2
0.14794493 -0.091730371 0.206
0.15936552 -0.097507812 0.21799999
0.17262188 -0.10424342 0.23199999
0.18855797 -0.11240333 0.249
0.0084770862 -0.004989238 0.011
0.020389603 -0.011850044 0.026000001
0.03670717 -0.021069482 0.046
0.047905069 -0.027160818 0.059
0.055350576 -0.031003227 0.067000002
0.065560706 -0.036284026 0.078000002
0.18358707 -0.094817474 0.197
0.19625114 -0.1002422 0.207
0.21508904 -0.10866799 0.223
0.23354517 -0.11672152 0.23800001
0.25358272 -0.12538539 0.25400001
0.019299509 -0.0094421376 0.018999999
0.044441175 -0.021515667 0.043000001
0.06520094 -0.031240361 0.061999999
0.075978324 -0.036032237 0.071000002
0.090387017 -0.042431898 0.082999997
0.096421577 -0.044811584 0.086999997
0.29531312 -0.12825882 0.235
0.32513112 -0.13990097 0.25400001
0.02477739 -0.010563631 0.018999999
0.045178365 -0.019086249 0.034000002
0.089376293 -0.037418056 0.066
0.12975253 -0.053836804 0.093999997
0.15480269 -0.063662216 0.11
0.18082075 -0.07370989 0.126
0.20053504 -0.081035651 0.13699999
0.22251238 -0.089141861 0.149
0.26060024 -0.10350874 0.171
0.30646104 -0.12069369 0.197
0.34309855 -0.13398837 0.21600001
0.38450518 -0.14890894 0.237
0.14001633 -0.086092621 0.199
0.1489784 -0.090378426 0.208
0.15820341 -0.094708584 0.21699999
0.17289124 -0.10215374 0.233
0.18728246 -0.10923452 0.248
0.0084535051 -0.0048680268 0.011
0.020332417 -0.011561885 0.026000001
0.033420466 -0.018769117 0.041999999
0.049387686 -0.027397348 0.061000001
0.062605031 -0.034310147 0.075999998
0.079617731 -0.043113187 0.094999999
0.086968765 -0.046538521 0.102
0.20225614 -0.10108082 0.214
0.22114275 -0.10931622 0.23
0.23769288 -0.11623174 0.243
0.001990288 -0.00096287922 0.0020000001
0.021261577 -0.010177664 0.021
0.046354894 -0.021958038 0.045000002
0.066031463 -0.030955775 0.063000001
0.07892105 -0.036620386 0.074000001
0.092248023 -0.042371329 0.085000001
0.10050472 -0.045701567 0.090999998
0.11914928 -0.053642556 0.106
0.14301212 -0.063753985 0.125
0.31748244 -0.13366276 0.249
0.025977559 -0.010836386 0.02
0.046318594 -0.01914582 0.035
0.080915853 -0.033145219 0.059999999
0.11958528 -0.048547812 0.086999997
0.14993587 -0.060330525 0.107
0.18574657 -0.074084386 0.13
0.20692825 -0.081815191 0.142
0.22744787 -0.089153357 0.153
0.26090863 -0.10139555 0.17200001
0.30346143 -0.11693403 0.19599999
0.34301937 -0.1310675 0.21699999
0.38906157 -0.14742292 0.241
0.15144454 -0.089848854 0.212
0.16360177 -0.095780909 0.22499999
0.17761059 -0.10262837 0.23999999
0.19054498 -0.10868701 0.25299999
0.0091970284 -0.0051794192 0.012
0.021836665 -0.012143485 0.028000001
0.034121968 -0.018740576 0.043000001
0.051672693 -0.028032925 0.064000003
0.067358315 -0.036101229 0.082000002
0.085242674 -0.045141384 0.102
0.097773321 -0.051166661 0.115
0.20635508 -0.10085551 0.219
0.2252585 -0.1088957 0.235
0.23890743 -0.11424989 0.245
0.0019840566 -0.00093870139 0.0020000001
0.020184975 -0.0094492724 0.02
0.048259903 -0.022356404 0.046999998
0.069996014 -0.032090884 0.067000002
0.082913607 -0.037624739 0.078000002
0.096267492 -0.043242645 0.089000002
0.10346776 -0.046011589 0.093999997
0.12770332 -0.056226078 0.114
0.15277721 -0.066605575 0.134
0.18220042 -0.078661099 0.15700001
0.025877036 -0.010556458 0.02
0.046136245 -0.018649977 0.035
0.081934787 -0.032822613 0.061000001
0.12457301 -0.049457643 0.090999998
0.15349878 -0.060402382 0.11
0.18069103 -0.070479035 0.127
0.2045829 -0.079104446 0.141
0.22940497 -0.087937891 0.155
0.26275456 -0.099861488 0.17399999
0.29744339 -0.112088 0.193
0.33826265 -0.12640016 0.215
0.38237566 -0.14169487 0.23800001
0.067171745 -0.042975422 0.107
0.070980407 -0.044751946 0.111
0.16970763 -0.097115554 0.234
0.18379273 -0.10380627 0.249
0.0030046899 -0.0016752376 0.0040000002
0.012994775 -0.0071531772 0.017000001
0.024112049 -0.013106534 0.030999999
0.036404755 -0.019543558 0.046
0.053948652 -0.02860781 0.067000002
0.069632299 -0.036478609 0.085000001
0.09084212 -0.047022074 0.109
0.10343684 -0.052910127 0.122
0.11384978 -0.057557944 0.132
0.23510048 -0.11109125 0.24600001
0.2449936 -0.11451904 0.252
0.0039560315 -0.0018294902 0.0040000002
0.019116659 -0.0087474026 0.018999999
0.042991444 -0.019466795 0.041999999
0.06769231 -0.030335041 0.064999998
0.086887054 -0.038538929 0.082000002
0.10350302 -0.045444623 0.096000001
0.11519664 -0.050072465 0.105
0.1384436 -0.059580687 0.124
0.16248871 -0.069242418 0.14300001
0.18736008 -0.07906507 0.162
0.057778146 -0.022829512 0.044
0.080278024 -0.03143391 0.059999999
0.12135255 -0.047092877 0.089000002
0.22547621 -0.084483266 0.153
0.25409004 -0.094391353 0.169
0.28998023 -0.10681198 0.189
0.33672237 -0.12298789 0.215
0.37579945 -0.13611834 0.235
0.0049000285 -0.0017601929 0.003
0.053483997 -0.033929501 0.086999997
0.06513349 -0.040710207 0.104
0.074000537 -0.045579962 0.116
0.081864625 -0.049701244 0.126
0.17217588 -0.096255474 0.23800001
0.18627362 -0.10278087 0.25299999
0.0044955644 -0.0024486498 0.0060000001
0.014486318 -0.0077902959 0.018999999
0.024825506 -0.013183098 0.032000002
0.036309849 -0.019043013 0.046
0.052200653 -0.027042422 0.064999998
0.066996545 -0.034288283 0.082000002
0.086443163 -0.043713029 0.104
0.10400315 -0.051972758 0.123
0.11870047 -0.058626138 0.138
0.0077548139 -0.00354128 0.0080000004
0.015777301 -0.0071280194 0.016000001
0.030093826 -0.01345273 0.029999999
0.047963742 -0.021217359 0.046999998
0.065408319 -0.028635452 0.063000001
0.083448388 -0.03616 0.079000004
0.10317752 -0.044256844 0.096000001
0.11701682 -0.049690496 0.107
0.14356089 -0.060357969 0.12899999
0.17101718 -0.071195848 0.15099999
0.1878905 -0.077460147 0.163
0.2123695 -0.086709276 0.18099999
0.085306652 -0.032632522 0.064000003
0.11816955 -0.044799984 0.086999997
0.15643385 -0.05878178 0.113
0.23628131 -0.086489908 0.161
0.26349393 -0.095627129 0.176
0.29942048 -0.10774545 0.19599999
0.343032 -0.12240268 0.22
0.38365582 -0.13575886 0.241
0.019509746 -0.0068466663 0.012
0.051521212 -0.031912681 0.083999999
0.063733414 -0.038894638 0.102
0.076374434 -0.045931488 0.12
0.086858809 -0.051488277 0.134
0.094391629 -0.05516316 0.14300001
0.18655053 -0.10050347 0.25400001
0.0044844374 -0.0023849218 0.0060000001
0.01292911 -0.006788725 0.017000001
0.020119999 -0.010432082 0.026000001
0.033068419 -0.016933562 0.041999999
0.051266152 -0.025931291 0.064000003
0.064379022 -0.032170761 0.079000004
0.080415152 -0.039704695 0.097000003
0.096140154 -0.046909176 0.114
0.11066519 -0.053367101 0.12899999
0.12915015 -0.061563902 0.148
0.13847205 -0.06525591 0.156
0.14717193 -0.068574965 0.163
0.017698416 -0.0078071845 0.017999999
0.03000628 -0.013096916 0.029999999
0.045787562 -0.01977651 0.045000002
0.062108036 -0.026548674 0.059999999
0.078984208 -0.033417553 0.075000003
0.099647865 -0.041733753 0.093000002
0.11883514 -0.049271286 0.109
0.14311062 -0.058748171 0.12899999
0.17386027 -0.070670687 0.154
0.18843357 -0.07585004 0.164
0.21518311 -0.085783862 0.184
0.23094727 -0.091190748 0.19400001
0.13396743 -0.04959017 0.098999999
0.15859801 -0.058188047 0.115
0.19118847 -0.069529966 0.13600001
0.23971565 -0.085675463 0.164
0.26837623 -0.095099591 0.18000001
0.29968694 -0.10529537 0.197
0.34001142 -0.11846057 0.219
0.37563848 -0.12978379 0.237
0.0097112879 -0.0033275785 0.0060000001
0.048346367 -0.02922204 0.079000004
0.061720025 -0.036755145 0.098999999
0.077471904 -0.045464903 0.122
0.091188386 -0.052747704 0.141
0.10076127 -0.057461753 0.153
0.1119823 -0.062971294 0.167
0.0029824316 -0.0015477695 0.0040000002
0.015932525 -0.0081634521 0.021
0.023158638 -0.011717253 0.029999999
0.032201521 -0.016090928 0.041000001
0.0463445 -0.022875015 0.057999998
0.060966149 -0.029728672 0.075000003
0.078557968 -0.037849847 0.094999999
0.098418467 -0.046859689 0.117
0.11294732 -0.053150617 0.132
0.1288145 -0.059919178 0.148
0.13810878 -0.063510977 0.156
0.14678201 -0.066739574 0.163
0.16487089 -0.07412979 0.18000001
0.027926752 -0.011894531 0.028000001
0.046671279 -0.019670794 0.046
0.056767669 -0.023679154 0.055
0.07350269 -0.030346435 0.07
0.10042065 -0.041040484 0.093999997
0.11630418 -0.047055941 0.107
0.13935685 -0.055824004 0.126
0.16994721 -0.067409806 0.15099999
0.18898915 -0.074234292 0.16500001
0.21449983 -0.083443895 0.184
0.23732272 -0.091442339 0.2
0.25850624 -0.098664165 0.214
0.14022462 -0.050651345 0.104
0.15801412 -0.056572095 0.115
0.19327231 -0.068588324 0.138
0.21702918 -0.076349631 0.152
0.24460472 -0.085309081 0.168
0.26582336 -0.091917478 0.17900001
0.29392475 -0.10077389 0.19400001
0.3308709 -0.11248878 0.214
0.36931249 -0.12451301 0.234
0.0032230821 -0.0010776884 0.0020000001
0.052673377 -0.017468054 0.032000002
0.045798898 -0.026996318 0.075000003
0.056608744 -0.032875963 0.090999998
0.070331939 -0.040252008 0.111
0.090986855 -0.051326964 0.141
0.10382268 -0.057740476 0.15800001
0.11039345 -0.0605396 0.16500001
0.11783697 -0.063733838 0.17299999
0.021563398 -0.010639791 0.028000001
0.032907944 -0.016036464 0.041999999
0.044638392 -0.021486957 0.056000002
0.060006805 -0.028535822 0.074000001
0.076715268 -0.03604614 0.093000002
0.097335473 -0.045195714 0.116
0.11437192 -0.052487403 0.134
0.12762122 -0.057893153 0.147
0.140406 -0.062967516 0.15899999
0.14999706 -0.066511489 0.167
0.16170172 -0.070903338 0.177
0.04350644 -0.017882541 0.043000001
0.058666743 -0.023864951 0.057
0.074340813 -0.029931972 0.071000002
0.10013157 -0.039908376 0.093999997
0.11813267 -0.046611458 0.109
0.14004789 -0.054710764 0.127
0.1683162 -0.065108635 0.15000001
0.18384764 -0.070425406 0.161
0.21151482 -0.080243893 0.182
0.23421502 -0.088008888 0.198
0.26129836 -0.097258762 0.21699999
0.29299033 -0.10803505 0.23899999
0.15471193 -0.054017439 0.113
0.1855925 -0.064231031 0.133
0.20768987 -0.071253791 0.146
0.23642835 -0.0804144 0.163
0.26479891 -0.08929456 0.17900001
0.30031416 -0.10041337 0.199
0.33570158 -0.11130324 0.21799999
0.36622551 -0.12041296 0.233
0.40280083 -0.13134578 0.25099999
0.038738169 -0.022941174 0.066
0.058350991 -0.03302674 0.093999997
0.070181921 -0.039145585 0.111
0.088859811 -0.048853401 0.138
0.10228696 -0.055440981 0.156
0.11148853 -0.059586633 0.167
0.11961783 -0.063053183 0.176
0.12453169 -0.06475383 0.18000001
0.050100464 -0.02350341 0.063000001
0.063909858 -0.029619694 0.079000004
0.080646962 -0.036930721 0.097999997
0.099612556 -0.045077831 0.119
0.11750006 -0.052552879 0.138
0.12817454 -0.05666684 0.148
0.14005871 -0.061215844 0.15899999
0.15320617 -0.0662084 0.171
0.16311632 -0.069706365 0.17900001
0.17888151 -0.075601891 0.193
0.19513912 -0.081574932 0.207
0.073091641 -0.028681302 0.07
0.10091429 -0.03919844 0.094999999
0.1232022 -0.047376651 0.114
0.14404489 -0.054842506 0.131
0.16670851 -0.06284833 0.149
0.18672192 -0.069709167 0.164
0.21204171 -0.078399956 0.183
0.23940176 -0.087672293 0.20299999
0.26169497 -0.094931595 0.21799999
0.2945191 -0.10583963 0.241
0.0062212613 -0.0022149866 0.0049999999
0.17242436 -0.058157623 0.124
0.19702256 -0.065876752 0.139
0.22400177 -0.074252203 0.155
0.26233682 -0.08621677 0.178
0.29917032 -0.097489491 0.199
0.337464 -0.10904496 0.22
0.37259847 -0.1193959 0.23800001
0.0015982708 -0.00050792523 0.001
0.035908144 -0.01131811 0.022
0.04217438 -0.02432498 0.071999997
0.050473846 -0.028240062 0.082999997
0.060089342 -0.033123951 0.097000003
0.071298495 -0.038731571 0.113
0.089317165 -0.04782464 0.139
0.10534392 -0.055609319 0.161
0.11325165 -0.058950912 0.17
0.12071991 -0.061975133 0.178
0.12909766 -0.065377958 0.18700001
0.13210201 -0.066005006 0.18799999
0.054747093 -0.025013689 0.068999998
0.068606026 -0.030967241 0.085000001
0.082102351 -0.036617033 0.1
0.10105025 -0.044536289 0.121
0.12147051 -0.052912351 0.14300001
0.13046177 -0.056174375 0.15099999
0.14235888 -0.060599092 0.162
0.15641004 -0.065830804 0.175
0.16544424 -0.068858013 0.182
0.18676029 -0.076874025 0.20200001
0.20405515 -0.083078317 0.21699999
0.09428484 -0.035668597 0.089000002
0.12286441 -0.046015076 0.114
0.14474134 -0.053671058 0.132
0.16958626 -0.062266544 0.152
0.18845956 -0.068523735 0.16599999
0.21373858 -0.07696721 0.185
0.2398746 -0.085555434 0.204
0.26330855 -0.093026944 0.22
0.2972829 -0.10404784 0.244
0.001240427 -0.0004301226 0.001
0.016419636 -0.0056413105 0.013
0.19633812 -0.063936576 0.139
0.22608866 -0.072990328 0.15700001
0.26285756 -0.084135942 0.17900001
0.30256081 -0.096024223 0.20200001
0.34077838 -0.10724548 0.223
0.37896404 -0.11827013 0.243
0.0095519675 -0.002956453 0.0060000001
0.045517806 -0.013973049 0.028000001
0.079705164 -0.024269337 0.048
0.037859101 -0.021584705 0.066
0.044430058 -0.02494001 0.075999998
0.050980564 -0.027760025 0.083999999
0.060587555 -0.032504551 0.097999997
0.070525505 -0.03728611 0.112
0.087212704 -0.045447785 0.13600001
0.10382353 -0.053339623 0.15899999
0.11235477 -0.056918543 0.169
0.12182454 -0.060868055 0.18000001
0.133652 -0.06587258 0.19400001
0.14234373 -0.069218472 0.20299999
0.14986156 -0.071912773 0.20999999
0.070869349 -0.031132583 0.088
0.081918105 -0.03555689 0.1
0.094155595 -0.040386774 0.113
0.11356546 -0.048144758 0.134
0.12757504 -0.053461011 0.148
0.14553441 -0.060292564 0.16599999
0.15871748 -0.065013856 0.178
0.16595852 -0.067223161 0.183
0.18907967 -0.075745448 0.205
0.20637518 -0.081773818 0.22
0.22802402 -0.089378759 0.23899999
0.092980862 -0.034233768 0.088
0.12253796 -0.044664413 0.114
0.14544535 -0.052488528 0.133
0.16912378 -0.06043461 0.152
0.18680638 -0.066104583 0.16500001
0.2027704 -0.071063139 0.176
0.22746713 -0.078958556 0.19400001
0.24822763 -0.085351467 0.208
0.28426346 -0.096828111 0.234
0.31413043 -0.10601036 0.25400001
0.028962241 -0.0096842507 0.023
0.26925567 -0.083877146 0.184
0.31043679 -0.095886827 0.208
0.34562823 -0.10586047 0.227
0.38377002 -0.11656439 0.24699999
0.014273522 -0.0042995918 0.0089999996
0.046960443 -0.014030071 0.028999999
0.07938876 -0.023526011 0.048
0.045512516 -0.024844943 0.078000002
0.053911131 -0.02854836 0.089000002
0.06725768 -0.035090555 0.109
0.076672725 -0.039421145 0.122
0.091521777 -0.046381507 0.14300001
0.10687707 -0.053398151 0.164
0.11544905 -0.056877453 0.17399999
0.12563352 -0.061044682 0.186
0.13750812 -0.065909065 0.2
0.14835313 -0.0701565 0.212
0.1573893 -0.073447779 0.221
0.16813408 -0.077440329 0.23199999
0.078470297 -0.033123568 0.096000001
0.092286162 -0.03849617 0.111
0.11077714 -0.045671027 0.131
0.12470978 -0.050822958 0.145
0.14520621 -0.058502074 0.16599999
0.16458362 -0.065562539 0.185
0.17462488 -0.068788141 0.193
0.19784243 -0.077076025 0.215
0.20869848 -0.08042004 0.223
0.22653151 -0.086351626 0.23800001
0.12222272 -0.043324277 0.114
0.14179413 -0.049763549 0.13
0.15979937 -0.05553218 0.14399999
0.17953151 -0.061783023 0.15899999
0.19992195 -0.068137951 0.17399999
0.22917932 -0.077365018 0.19599999
0.248724 -0.083170131 0.20900001
0.27982301 -0.092694208 0.23100001
0.30952579 -0.10158367 0.25099999
0.025110826 -0.0081655188 0.02
0.052418318 -0.016890343 0.041000001
0.28438801 -0.086154774 0.19499999
0.32275257 -0.096949317 0.21699999
0.35199803 -0.10484658 0.23199999
0.3947759 -0.11660976 0.255
0.023701862 -0.0069433334 0.015
0.054850474 -0.015936675 0.034000002
0.084026948 -0.02421573 0.050999999
0.049850501 -0.026041392 0.083999999
0.056833621 -0.029244758 0.093999997
0.068979129 -0.034970824 0.112
0.080291606 -0.040114231 0.12800001
0.091986656 -0.045298651 0.14399999
0.10992489 -0.053367615 0.169
0.11986238 -0.057381611 0.18099999
0.13010907 -0.061431341 0.193
0.1427294 -0.066476844 0.208
0.15364882 -0.070605859 0.22
0.16276392 -0.073807739 0.229
0.17358515 -0.077689826 0.23999999
0.17957026 -0.079335541 0.244
0.075042248 -0.030780675 0.092
0.088771433 -0.03598278 0.107
0.10463286 -0.041917883 0.124
0.11843245 -0.046899773 0.138
0.14663464 -0.057406794 0.168
0.16777138 -0.064942315 0.189
0.18236095 -0.069803968 0.20200001
0.20290627 -0.076813243 0.221
0.21382676 -0.080065951 0.229
0.22886029 -0.084772132 0.241
0.2424152 -0.088836208 0.25099999
0.25047699 -0.090822838 0.255
0.00099903508 -0.00035847057 0.001
0.1381726 -0.047121175 0.127
0.15496351 -0.052328747 0.14
0.17005685 -0.056867469 0.15099999
0.19137523 -0.063380487 0.167
0.22157177 -0.072681688 0.19
0.24567796 -0.079828374 0.207
0.27905506 -0.089825697 0.23100001
0.30620384 -0.097651586 0.249
0.022535758 -0.0071209255 0.017999999
0.056091942 -0.017562946 0.044
0.079193547 -0.024572864 0.061000001
0.28927383 -0.085156798 0.199
0.3187125 -0.093028583 0.215
0.34928912 -0.1010977 0.23100001
0.38723412 -0.11114762 0.25099999
0.022043278 -0.0062748613 0.014
0.046614651 -0.013160794 0.028999999
0.080432631 -0.022524426 0.048999999
0.067624226 -0.033286072 0.11
0.08077088 -0.039179176 0.12899999
0.089266896 -0.042679861 0.14
0.10712437 -0.05049428 0.16500001
0.11897796 -0.055300437 0.18000001
0.12784629 -0.058606084 0.19
0.14245972 -0.064420082 0.208
0.1568419 -0.069975458 0.22499999
0.16741788 -0.073708542 0.236
0.18119067 -0.078733526 0.25099999
0.00073451293 -0.00031506858 0.001
0.10273159 -0.039958369 0.122
0.11904083 -0.045768708 0.139
0.14371175 -0.054625023 0.16500001
0.16918494 -0.063583471 0.191
0.18917474 -0.070304655 0.20999999
0.20796144 -0.076435708 0.227
0.2180151 -0.07925839 0.234
0.23498444 -0.084507398 0.248
0.0019272577 -0.00068571401 0.0020000001
0.0098003307 -0.0034501744 0.0099999998
0.01495112 -0.0052085835 0.015
0.15458056 -0.050680295 0.14
0.16738422 -0.054344758 0.149
0.18860312 -0.060644604 0.16500001
0.21518525 -0.068532519 0.185
0.24977095 -0.078796439 0.211
0.28433907 -0.088862978 0.236
0.0036792653 -0.0011392091 0.003
0.034959711 -0.010725213 0.028000001
0.067377403 -0.020482602 0.052999999
0.088031702 -0.026520336 0.068000004
0.10811944 -0.032281112 0.082000002
0.3496494 -0.09825702 0.23199999
0.37978557 -0.10583755 0.24699999
0.01726041 -0.0047703874 0.011
0.044849746 -0.012294036 0.028000001
0.078509293 -0.021346046 0.048
0.11861971 -0.031992245 0.071000002
0.065050557 -0.031059392 0.106
0.079377942 -0.037349254 0.127
0.089107953 -0.041326702 0.14
0.10369202 -0.047411196 0.16
0.11612417 -0.052355994 0.176
0.12492756 -0.055551358 0.186
0.13878104 -0.060875319 0.20299999
0.15307426 -0.066247232 0.22
0.16356713 -0.069854416 0.23100001
0.17869082 -0.075319611 0.248
0.003665657 -0.0015252447 0.0049999999
0.0067130984 -0.0027578094 0.0089999996
0.10252537 -0.038682751 0.122
0.12050904 -0.044944298 0.141
0.14167956 -0.052238289 0.163
0.16353206 -0.059616704 0.185
0.18788156 -0.067731023 0.20900001
0.20752385 -0.073988445 0.227
0.22312996 -0.078686289 0.23999999
0.2401527 -0.083777159 0.25400001
0.0067307591 -0.0023230035 0.0070000002
0.015646113 -0.0053430526 0.016000001
0.024863236 -0.008402071 0.025
0.027310265 -0.0091337198 0.027000001
0.14870387 -0.047292218 0.13500001
0.16361712 -0.051529389 0.146
0.18814048 -0.058682524 0.16500001
0.21348961 -0.065954447 0.184
0.25150195 -0.076964296 0.213
0.28721574 -0.087071486 0.23899999
0.0048929253 -0.0014695842 0.0040000002
0.032376792 -0.0096350834 0.026000001
0.059589304 -0.017572064 0.046999998
0.090373464 -0.026409762 0.07
0.10913407 -0.031607408 0.082999997
0.13393478 -0.038446963 0.1
0.3545509 -0.096648201 0.236
0.38468763 -0.10399058 0.25099999
0.020331273 -0.005450693 0.013
0.041505586 -0.011036359 0.026000001
0.071718469 -0.018915255 0.044
0.11154187 -0.029181711 0.067000002
0.073626563 -0.033572476 0.118
0.087048382 -0.039123867 0.13699999
0.098983735 -0.043859761 0.153
0.11131119 -0.048635066 0.169
0.12135588 -0.052295487 0.18099999
0.13171139 -0.055988818 0.193
0.14655092 -0.061464034 0.211
0.15761948 -0.065234117 0.223
0.1733337 -0.070803709 0.241
0.0014635971 -0.00059016881 0.0020000001
0.0074453321 -0.002964098 0.0099999998
0.017421048 -0.0068486757 0.023
0.020803913 -0.0080773598 0.027000001
0.12027315 -0.043470155 0.141
0.13792971 -0.049284138 0.15899999
0.15526623 -0.054854158 0.176
0.18032619 -0.062998436 0.20100001
0.20254023 -0.069980152 0.222
0.22267169 -0.076098114 0.23999999
0.0047176043 -0.0015948782 0.0049999999
0.014392812 -0.0048139249 0.015
0.025371039 -0.008396321 0.026000001
0.036718715 -0.012024969 0.037
0.045418438 -0.014720477 0.045000002
0.053379282 -0.017123885 0.052000001
0.15764461 -0.048114263 0.141
0.18655723 -0.056390651 0.164
0.20950431 -0.062723301 0.18099999
0.24617751 -0.073007092 0.20900001
0.28410786 -0.083467945 0.237
0.31114075 -0.090563156 0.255
0.029810064 -0.0085971281 0.024
0.05184745 -0.014816677 0.041000001
0.082409509 -0.023338342 0.064000003
0.10490762 -0.029444538 0.079999998
0.12822689 -0.035671134 0.096000001
0.36245415 -0.095749877 0.242
0.38348794 -0.10046331 0.25099999
0.023384444 -0.0060755326 0.015
0.049326409 -0.012710684 0.030999999
0.081227131 -0.02076121 0.050000001
0.11945808 -0.030287184 0.071999997
0.083732001 -0.03643322 0.132
0.094942875 -0.040727705 0.147
0.10783603 -0.045614172 0.164
0.11847284 -0.049425051 0.177
0.12671764 -0.052148312 0.186
0.14075214 -0.057149541 0.20299999
0.15381874 -0.061631028 0.21799999
0.16800584 -0.066438913 0.234
0.18481991 -0.072148755 0.25299999
0.0059457286 -0.0022916002 0.0080000004
0.018146079 -0.0069062221 0.024
0.02922697 -0.010985848 0.037999999
0.13160586 -0.045525033 0.152
0.15056485 -0.051497001 0.171
0.17549868 -0.059356835 0.19599999
0.19667937 -0.065788247 0.21600001
0.22408216 -0.074138224 0.242
0.0075330501 -0.0024654879 0.0080000004
0.020109149 -0.0065113856 0.021
0.030188188 -0.0096719507 0.030999999
0.045555856 -0.014443317 0.046
0.05841684 -0.018329645 0.057999998
0.071704611 -0.022269117 0.07
0.082306422 -0.025303178 0.079000004
0.21248335 -0.061586827 0.184
0.24559891 -0.070513152 0.20900001
0.28223431 -0.08027371 0.236
0.0012172053 -0.00034299336 0.001
0.030975783 -0.0086484859 0.025
0.0517179 -0.014308422 0.041000001
0.073209524 -0.020071866 0.057
0.10332869 -0.028076705 0.079000004
0.13188645 -0.035519414 0.098999999
0.027975218 -0.0070365458 0.017999999
0.055516493 -0.013849697 0.035
0.087444209 -0.021637727 0.054000001
0.12402779 -0.030443281 0.075000003
0.16048945 -0.039078705 0.094999999
0.07979776 -0.033577655 0.126
0.094144762 -0.039055061 0.146
0.10831728 -0.044308517 0.16500001
0.1196155 -0.048258033 0.17900001
0.12854941 -0.05115959 0.189
0.14259537 -0.055990845 0.206
0.15637957 -0.060593218 0.222
0.16915677 -0.06469065 0.236
0.18523611 -0.069929384 0.25400001
0.0074194763 -0.0027654197 0.0099999998
0.018114872 -0.006667255 0.024
0.03147972 -0.011442866 0.041000001
0.14676984 -0.048545584 0.167
0.17516968 -0.057294179 0.19599999
0.19176289 -0.062031001 0.211
0.21718438 -0.069489352 0.235
0.0018796247 -0.0005949192 0.0020000001
0.01720277 -0.0053868266 0.017999999
0.033044305 -0.010238316 0.034000002
0.049418438 -0.015151891 0.050000001
0.067345366 -0.020435201 0.067000002
0.081780873 -0.024561949 0.079999998
0.093573138 -0.027819399 0.090000004
0.10257657 -0.030190824 0.097000003
0.24387017 -0.067710839 0.208
0.27442664 -0.075482428 0.23
0.29873386 -0.081407115 0.24600001
0.02224971 -0.0060075633 0.017999999
0.047818273 -0.012793842 0.037999999
0.074311644 -0.019703047 0.057999998
0.10959512 -0.028798711 0.083999999
0.13288151 -0.034608807 0.1
0.16107866 -0.041584849 0.119
0.19445366 -0.04976479 0.141
0.060093172 -0.014497773 0.037999999
0.085560173 -0.020474356 0.052999999
0.11869124 -0.028174054 0.071999997
0.15492003 -0.036480401 0.092
0.095929667 -0.038440038 0.149
0.10945845 -0.043250225 0.167
0.12209564 -0.047580827 0.183
0.13174073 -0.050643843 0.19400001
0.14305858 -0.054259434 0.207
0.15753444 -0.0589616 0.22400001
0.17174493 -0.063443333 0.23999999
0.00072808506 -0.00026550094 0.001
0.010370179 -0.0037335681 0.014
0.023359593 -0.0083047589 0.030999999
0.039092273 -0.013726029 0.050999999
0.053017743 -0.018387983 0.068000004
0.17306907 -0.054679133 0.19400001
0.19594903 -0.061226297 0.21600001
0.21678431 -0.066998996 0.235
0.015262597 -0.0046165115 0.016000001
0.032981493 -0.0098708216 0.034000002
0.054255836 -0.016068498 0.055
0.069220886 -0.020288942 0.068999998
0.087741613 -0.025454694 0.086000003
0.10168807 -0.029202355 0.097999997
0.10975757 -0.031204173 0.104
0.12344676 -0.034748171 0.115
0.24918795 -0.06683109 0.213
0.27858165 -0.074015737 0.234
0.29685134 -0.078139231 0.245
0.018499145 -0.0048247846 0.015
0.045196559 -0.011680595 0.035999998
0.072858438 -0.018659884 0.057
0.11063429 -0.028081754 0.085000001
0.13123223 -0.033015318 0.098999999
0.16202965 -0.040405884 0.12
0.19671422 -0.048628949 0.14300001
0.23269017 -0.057026889 0.16599999
0.28430367 -0.069081157 0.199
0.09013512 -0.020834696 0.056000002
0.12326187 -0.028262731 0.075000003
0.15779711 -0.035892688 0.093999997
0.10471215 -0.039915871 0.16
0.11924552 -0.044831511 0.17900001
0.13289544 -0.049286291 0.19599999
0.14628857 -0.053528041 0.212
0.15799247 -0.057047907 0.22499999
0.17147686 -0.061110683 0.23999999
0.1846429 -0.064957038 0.25400001
0.010353752 -0.0035962127 0.014
0.024826972 -0.0085152099 0.033
0.039029378 -0.013220734 0.050999999
0.053710207 -0.017971305 0.068999998
0.061753988 -0.020413239 0.078000002
0.20103855 -0.060601681 0.222
0.21363749 -0.063698381 0.23199999
0.23503228 -0.069322757 0.25099999
0.013330603 -0.0038899686 0.014
0.028079826 -0.0081075225 0.028999999
0.053170856 -0.015191949 0.054000001
0.068090133 -0.019253846 0.068000004
0.085539006 -0.023940742 0.083999999
0.10356475 -0.028692672 0.1
0.11586484 -0.031779066 0.11
0.13713214 -0.037239425 0.12800001
0.28749281 -0.073690355 0.242
0.0012090217 -0.00030702684 0.001
0.02830315 -0.0071215318 0.023
0.051359199 -0.012805316 0.041000001
0.076519474 -0.018906612 0.059999999
0.1103797 -0.027029401 0.085000001
0.13224754 -0.032097813 0.1
