ply
format ascii 1.0
comment PCL generated
element vertex 1784
property float x
property float y
property float z
element face 0
element camera 0
property float view_px
property float view_py
property float view_pz
property float x_axisx
property float x_axisy
property float x_axisz
property float y_axisx
property float y_axisy
property float y_axisz
property float z_axisx
property float z_axisy
property float z_axisz
property float focal
property float scalex
property float scaley
property float centerx
property float centery
property int viewportx
property int viewporty
property float k1
property float k2
end_header
0.69800001 1.941 -0.17900001
0.69499999 1.934 -0.176
0.69300002 1.927 -0.17299999
0.69 1.92 -0.171
0.68800002 1.9119999 -0.168
0.68599999 1.908 -0.16599999
0.68599999 1.9069999 -0.164
0.68699998 1.91 -0.162
0.68900001 1.9170001 -0.161
0.69199997 1.925 -0.15899999
0.69599998 1.936 -0.15800001
0.69599998 1.936 -0.156
0.69300002 1.927 -0.153
0.67500001 1.882 0.079000004
0.704 1.946 -0.182
0.70200002 1.941 -0.17900001
0.699 1.9349999 -0.177
0.69700003 1.929 -0.17399999
0.69499999 1.923 -0.171
0.69300002 1.9170001 -0.168
0.69099998 1.913 -0.16599999
0.69099998 1.911 -0.164
0.69099998 1.913 -0.162
0.69300002 1.919 -0.161
0.69499999 1.924 -0.15899999
0.69599998 1.928 -0.15800001
0.69499999 1.924 -0.156
0.69099998 1.913 -0.153
0.67900002 1.883 0.079000004
0.70300001 1.9349999 -0.177
0.70099998 1.9299999 -0.17399999
0.69999999 1.925 -0.17200001
0.69800001 1.921 -0.169
0.69599998 1.9170001 -0.167
0.69599998 1.916 -0.16500001
0.69599998 1.916 -0.163
0.69700003 1.918 -0.161
0.69700003 1.919 -0.15899999
0.69599998 1.918 -0.15700001
0.69599998 1.918 -0.155
0.69599998 1.9170001 -0.153
0.68599999 1.892 0.071000002
0.68400002 1.888 0.072999999
0.68300003 1.885 0.075000003
0.68300003 1.8839999 0.077
0.68300003 1.883 0.079000004
0.70700002 1.936 -0.177
0.70499998 1.931 -0.17399999
0.704 1.927 -0.17200001
0.70200002 1.923 -0.169
0.70099998 1.92 -0.167
0.69999999 1.918 -0.16500001
0.699 1.9170001 -0.163
0.699 1.916 -0.161
0.69800001 1.913 -0.15800001
0.69599998 1.909 -0.156
0.69599998 1.9069999 -0.154
0.69599998 1.9069999 -0.152
0.69400001 1.902 -0.15000001
0.69 1.892 -0.147
0.68599999 1.881 -0.14399999
0.73199999 2.0039999 -0.083999999
0.68599999 1.882 0.071000002
0.685 1.881 0.072999999
0.685 1.881 0.075000003
0.68599999 1.882 0.077
0.68599999 1.8839999 0.079000004
0.70700002 1.928 -0.17200001
0.70599997 1.925 -0.169
0.70499998 1.921 -0.167
0.70300001 1.9170001 -0.16500001
0.70200002 1.914 -0.163
0.70099998 1.9119999 -0.16
0.699 1.9069999 -0.15800001
0.69700003 1.9 -0.155
0.69400001 1.895 -0.153
0.69300002 1.89 -0.15099999
0.69099998 1.8839999 -0.148
0.68800002 1.877 -0.146
0.69499999 1.896 -0.081
1.04 2.8429999 -0.12
0.90899998 2.4879999 -0.104
0.69 1.886 0.067000002
0.68900001 1.882 0.068999998
0.68800002 1.8789999 0.071000002
0.68800002 1.8789999 0.072999999
0.68800002 1.88 0.075000003
0.68900001 1.882 0.077
0.69 1.885 0.079000004
0.71100003 1.928 -0.17200001
0.70899999 1.924 -0.169
0.70700002 1.919 -0.167
0.70499998 1.914 -0.164
0.704 1.91 -0.162
0.70200002 1.905 -0.16
0.69999999 1.899 -0.15800001
0.69700003 1.892 -0.155
0.69499999 1.886 -0.153
0.69300002 1.882 -0.15000001
0.69099998 1.877 -0.148
1.22 3.3169999 -0.146
1.177 3.2 -0.14
0.69099998 1.88 0.067000002
0.69099998 1.8789999 0.068999998
0.69099998 1.8789999 0.071000002
0.69099998 1.88 0.072999999
0.69199997 1.881 0.075000003
0.69300002 1.8839999 0.077
0.69400001 1.887 0.079000004
2.8670001 7.7280002 -0.778
2.1500001 5.796 -0.57999998
0.71700001 1.932 -0.19400001
0.71399999 1.926 -0.17200001
0.71200001 1.921 -0.169
0.70999998 1.9170001 -0.167
0.708 1.913 -0.164
0.70599997 1.9069999 -0.162
0.70300001 1.898 -0.15899999
0.69999999 1.89 -0.15700001
0.69700003 1.883 -0.154
0.69499999 1.878 -0.152
0.69400001 1.874 -0.149
0.69300002 1.8710001 -0.147
0.69300002 1.873 -0.142
0.69300002 1.874 -0.14
0.69300002 1.873 -0.138
0.69300002 1.873 -0.13600001
0.69400001 1.874 -0.134
1.174 3.175 -0.146
1.2180001 3.293 -0.15099999
0.69300002 1.876 0.067000002
0.69300002 1.875 0.068999998
0.69300002 1.877 0.071000002
0.69400001 1.8789999 0.072999999
0.69499999 1.881 0.075000003
0.69700003 1.8839999 0.077
0.699 1.89 0.079000004
3.2019999 8.5950003 -0.866
2.402 6.447 -0.64600003
0.801 2.1489999 -0.215
0.71499997 1.921 -0.171
0.71399999 1.9170001 -0.169
0.71100003 1.911 -0.167
0.708 1.903 -0.164
0.70499998 1.895 -0.161
0.70300001 1.888 -0.15899999
0.69999999 1.881 -0.156
0.69700003 1.873 -0.154
0.69599998 1.869 -0.15099999
0.69599998 1.872 -0.14300001
0.69800001 1.876 -0.142
0.699 1.8789999 -0.14
0.699 1.88 -0.139
0.69999999 1.883 -0.13699999
0.70200002 1.887 -0.13500001
1.309 3.523 -0.162
1.309 3.523 -0.162
0.69599998 1.874 0.068999998
0.69599998 1.875 0.071000002
0.69700003 1.878 0.072999999
0.699 1.881 0.075000003
0.70099998 1.887 0.077
0.704 1.8940001 0.079000004
3.2219999 8.6070004 -0.86699998
2.822 7.5359998 -0.75300002
2.02 5.388 -0.53299999
1.215 3.2349999 -0.31799999
0.71499997 1.9119999 -0.17
0.71399999 1.908 -0.168
0.71200001 1.902 -0.16599999
0.70899999 1.895 -0.163
0.70599997 1.887 -0.161
0.70300001 1.88 -0.15800001
0.70099998 1.873 -0.155
0.69999999 1.872 -0.14300001
0.70300001 1.88 -0.142
0.70499998 1.887 -0.141
0.70700002 1.892 -0.139
0.70899999 1.897 -0.138
0.71200001 1.904 -0.13600001
1.3150001 3.523 -0.162
1.3150001 3.523 -0.162
0.699 1.874 0.068999998
0.69999999 1.876 0.071000002
0.70099998 1.8789999 0.072999999
0.70300001 1.8839999 0.075000003
0.70599997 1.891 0.077
0.70999998 1.9 0.079000004
3.2409999 8.6169996 -0.86900002
3.244 8.6239996 -0.86000001
3.2449999 8.6280003 -0.852
2.4349999 6.473 -0.63599998
0.81199998 2.158 -0.212
0.71399999 1.901 -0.169
0.713 1.896 -0.167
0.71100003 1.891 -0.16500001
0.70899999 1.886 -0.162
0.70700002 1.88 -0.16
0.704 1.8710001 -0.15700001
0.70200002 1.87 -0.14399999
0.708 1.883 -0.142
0.71200001 1.8940001 -0.141
0.71399999 1.902 -0.14
0.71700001 1.91 -0.139
0.72000003 1.9170001 -0.13699999
0.92400002 2.4679999 -0.113
0.92400002 2.4679999 -0.113
0.70200002 1.872 0.067000002
0.70300001 1.875 0.068999998
0.70499998 1.878 0.071000002
0.70599997 1.882 0.072999999
0.708 1.888 0.075000003
0.71200001 1.896 0.077
0.71499997 1.906 0.079000004
3.2590001 8.6219997 -0.87
3.2620001 8.6300001 -0.86199999
3.2639999 8.6370001 -0.85299999
2.4489999 6.48 -0.63700002
0.81599998 2.1600001 -0.212
0.70999998 1.8789999 -0.164
0.70700002 1.873 -0.161
0.70499998 1.868 -0.15899999
0.70499998 1.869 -0.14399999
0.71100003 1.882 -0.142
0.71499997 1.8940001 -0.142
0.71899998 1.905 -0.14
0.722 1.913 -0.139
0.72399998 1.919 -0.138
0.722 1.914 -0.13500001
0.71600002 1.899 -0.132
0.70899999 1.88 -0.12800001
0.70499998 1.8710001 0.063000001
0.70499998 1.872 0.064999998
0.70599997 1.874 0.067000002
0.708 1.877 0.068999998
0.70899999 1.881 0.071000002
0.71100003 1.886 0.072999999
0.713 1.892 0.075000003
0.71700001 1.901 0.078000002
0.72000003 1.91 0.079999998
3.2750001 8.6230001 -0.87
3.2780001 8.6330004 -0.86199999
3.2809999 8.6409998 -0.85399997
2.4619999 6.4840002 -0.63700002
0.82099998 2.161 -0.212
0.70999998 1.872 -0.163
0.70899999 1.869 -0.161
0.708 1.8660001 -0.15899999
0.70899999 1.87 -0.14399999
0.713 1.88 -0.142
0.71700001 1.891 -0.142
0.72100002 1.903 -0.14
0.72500002 1.911 -0.139
0.727 1.916 -0.13699999
0.72399998 1.91 -0.13500001
0.71799999 1.895 -0.132
0.71100003 1.876 -0.12800001
1.197 3.158 -0.145
1.197 3.158 -0.145
0.708 1.87 0.063000001
0.70899999 1.872 0.064999998
0.70999998 1.876 0.067000002
0.71200001 1.8789999 0.068999998
0.71399999 1.8839999 0.071000002
0.71600002 1.891 0.072999999
0.71899998 1.899 0.075000003
0.72299999 1.908 0.078000002
0.72500002 1.913 0.079999998
2.7160001 7.119 -0.71600002
3.2950001 8.6359997 -0.86299998
3.299 8.6440001 -0.85500002
2.4749999 6.487 -0.63800001
0.82499999 2.1619999 -0.213
0.77399999 2.0239999 -0.191
2.3199999 6.072 -0.57200003
2.3199999 6.072 -0.57200003
0.77399999 2.0239999 -0.191
0.71200001 1.867 -0.163
0.71100003 1.865 -0.161
0.71100003 1.863 -0.15899999
0.713 1.87 -0.14399999
0.71700001 1.88 -0.142
0.72000003 1.891 -0.141
0.72399998 1.901 -0.14
0.727 1.908 -0.138
0.72799999 1.911 -0.13699999
0.72600001 1.905 -0.134
0.71899998 1.8890001 -0.132
0.713 1.872 -0.12800001
0.71100003 1.87 0.063000001
0.713 1.874 0.064999998
0.71399999 1.878 0.067000002
0.71600002 1.882 0.068999998
0.71799999 1.887 0.071000002
0.72000003 1.893 0.072999999
0.72299999 1.899 0.075000003
0.72500002 1.906 0.078000002
0.727 1.911 0.079999998
2.8959999 7.5489998 -0.75999999
3.312 8.6370001 -0.86299998
3.316 8.6470003 -0.85500002
2.4879999 6.4889998 -0.63800001
0.829 2.1630001 -0.213
1.109 2.892 -0.27200001
3.326 8.677 -0.81699997
3.326 8.677 -0.81699997
1.109 2.892 -0.27200001
0.71499997 1.864 -0.163
0.71499997 1.865 -0.161
0.71499997 1.865 -0.15899999
0.71399999 1.864 -0.15700001
0.71399999 1.864 -0.155
0.71399999 1.864 -0.153
0.71399999 1.864 -0.15099999
0.71499997 1.8660001 -0.145
0.71700001 1.872 -0.14399999
0.72000003 1.881 -0.14300001
0.72299999 1.888 -0.141
0.72500002 1.8940001 -0.139
0.727 1.899 -0.138
0.72899997 1.905 -0.13699999
0.727 1.9 -0.134
0.72100002 1.885 -0.132
0.71499997 1.869 -0.12800001
0.71399999 1.869 0.061000001
0.71499997 1.872 0.063000001
0.71700001 1.875 0.064999998
0.71799999 1.8789999 0.067000002
0.72000003 1.8839999 0.068999998
0.72299999 1.8890001 0.071000002
0.72500002 1.895 0.072999999
0.727 1.901 0.075999998
0.72899997 1.906 0.078000002
0.73000002 1.911 0.079999998
3.322 8.6210003 -0.87099999
3.3269999 8.6339998 -0.86299998
3.3310001 8.6450005 -0.85500002
2.7509999 7.138 -0.70099998
1.5880001 4.1129999 -0.40099999
1.533 3.9749999 -0.37900001
2.5869999 6.7249999 -0.63499999
2.336 6.0749998 -0.57200003
0.77899998 2.0250001 -0.191
0.71799999 1.864 -0.163
0.71899998 1.867 -0.161
0.71899998 1.868 -0.15899999
0.71899998 1.868 -0.15700001
0.72000003 1.869 -0.155
0.72100002 1.872 -0.154
0.72100002 1.872 -0.152
0.72000003 1.87 -0.149
0.71899998 1.87 -0.147
0.72000003 1.8710001 -0.146
0.72100002 1.874 -0.14399999
0.72299999 1.8789999 -0.14300001
0.72399998 1.882 -0.141
0.72399998 1.882 -0.139
0.72600001 1.887 -0.13699999
0.72899997 1.896 -0.13600001
0.72899997 1.895 -0.134
0.72399998 1.883 -0.131
0.71899998 1.869 -0.12800001
1.406 3.6589999 -0.115
1.406 3.6589999 -0.115
0.77200001 2.0109999 0.013
0.76599997 1.9960001 0.015
0.71799999 1.869 0.048999999
0.71799999 1.87 0.050999999
0.71799999 1.869 0.052999999
0.71799999 1.868 0.055
0.71799999 1.868 0.057
0.71799999 1.869 0.059
0.71799999 1.87 0.061000001
0.71899998 1.873 0.063000001
0.72100002 1.877 0.064999998
0.72299999 1.881 0.067000002
0.72500002 1.886 0.068999998
0.727 1.891 0.071000002
0.72899997 1.897 0.074000001
0.73100001 1.902 0.075999998
0.73299998 1.9069999 0.078000002
0.73400003 1.911 0.079999998
3.3340001 8.6120005 -0.87
3.3399999 8.6260004 -0.86299998
3.3440001 8.6379995 -0.85500002
3.348 8.6499996 -0.847
3.3529999 8.6619997 -0.83899999
2.516 6.5009999 -0.62599999
0.83899999 2.1670001 -0.20900001
0.722 1.867 -0.163
0.722 1.868 -0.161
0.72299999 1.87 -0.15899999
0.72399998 1.872 -0.15800001
0.72500002 1.874 -0.156
0.72600001 1.877 -0.154
0.727 1.8789999 -0.152
0.727 1.8789999 -0.15000001
0.72600001 1.877 -0.148
0.72399998 1.874 -0.146
0.72399998 1.873 -0.14399999
0.72500002 1.875 -0.142
0.72500002 1.874 -0.14
0.72299999 1.8710001 -0.138
0.72399998 1.874 -0.13600001
0.72799999 1.8839999 -0.13500001
0.72899997 1.886 -0.134
0.72799999 1.882 -0.131
0.72399998 1.874 -0.12800001
1.265 3.28 -0.103
1.265 3.28 -0.103
0.77499998 2.0090001 0.0049999999
0.77700001 2.0139999 0.0070000002
0.77700001 2.0139999 0.0089999996
0.77600002 2.0109999 0.011
0.77100003 2 0.013
0.764 1.979 0.015
0.72100002 1.867 0.050999999
0.72000003 1.8660001 0.052999999
0.72100002 1.867 0.055
0.72100002 1.868 0.057
0.722 1.869 0.059
0.722 1.87 0.061000001
0.72299999 1.873 0.063000001
0.72500002 1.878 0.064999998
0.727 1.882 0.067000002
0.72899997 1.888 0.068999998
0.73100001 1.892 0.071000002
0.73199999 1.896 0.074000001
0.73400003 1.9 0.075999998
0.736 1.906 0.078000002
0.73799998 1.911 0.079999998
3.3670001 8.6569996 -0.83899999
2.527 6.4980001 -0.62599999
0.84200001 2.1659999 -0.20900001
0.72500002 1.865 -0.163
0.72600001 1.868 -0.162
0.727 1.872 -0.16
0.72899997 1.875 -0.15800001
0.73000002 1.878 -0.156
0.73100001 1.881 -0.155
0.73199999 1.883 -0.153
0.73299998 1.885 -0.15099999
0.73199999 1.8839999 -0.149
0.73000002 1.88 -0.147
0.72899997 1.877 -0.145
0.72899997 1.877 -0.14300001
0.72799999 1.874 -0.141
0.72600001 1.868 -0.138
0.72500002 1.868 -0.13600001
0.727 1.872 -0.134
0.727 1.872 -0.132
0.72600001 1.87 -0.13
0.727 1.872 -0.12800001
0.73000002 1.8789999 -0.127
0.73100001 1.882 -0.125
0.73100001 1.882 -0.123
0.73000002 1.88 -0.121
0.72899997 1.877 -0.119
0.727 1.873 -0.117
0.72500002 1.868 -0.115
0.77899998 2.01 0.0049999999
0.77999997 2.013 0.0070000002
0.77899998 2.0109999 0.0089999996
0.77700001 2.0039999 0.011
0.77100003 1.989 0.013
0.76200002 1.966 0.015
0.73000002 1.883 0.016000001
0.72399998 1.869 0.048999999
0.72500002 1.87 0.050999999
0.72399998 1.868 0.052999999
0.72399998 1.867 0.055
0.72399998 1.868 0.057
0.72500002 1.869 0.059
0.72600001 1.872 0.061000001
0.727 1.874 0.063000001
0.72799999 1.877 0.064999998
0.72899997 1.88 0.067000002
0.73100001 1.8839999 0.068999998
0.73299998 1.8890001 0.071000002
0.73400003 1.893 0.074000001
0.736 1.898 0.075999998
0.73900002 1.905 0.078000002
0.74199998 1.911 0.079999998
0.75800002 1.949 -0.18799999
0.72799999 1.864 -0.163
0.72899997 1.867 -0.162
0.73100001 1.872 -0.16
0.73299998 1.878 -0.15899999
0.73500001 1.882 -0.15700001
0.736 1.885 -0.155
0.73699999 1.887 -0.153
0.73699999 1.8890001 -0.152
0.736 1.886 -0.149
0.73299998 1.88 -0.147
0.73199999 1.875 -0.14399999
0.73100001 1.873 -0.142
0.72899997 1.868 -0.14
0.72600001 1.8609999 -0.138
0.72600001 1.862 -0.132
0.73199999 1.877 -0.131
0.73699999 1.8890001 -0.13
0.741 1.901 -0.12800001
0.74299997 1.906 -0.126
0.74299997 1.905 -0.125
0.74299997 1.905 -0.123
0.74400002 1.9069999 -0.121
0.74400002 1.9069999 -0.119
0.74299997 1.906 -0.117
0.77899998 2.0009999 0.0049999999
0.77899998 2.0009999 0.0070000002
0.77700001 1.995 0.0089999996
0.773 1.984 0.011
0.72799999 1.868 0.045000002
0.73000002 1.873 0.046999998
0.73100001 1.876 0.050000001
0.73100001 1.877 0.052000001
0.73000002 1.874 0.052999999
0.72899997 1.872 0.055
0.72899997 1.872 0.057
0.73000002 1.872 0.059
0.73000002 1.874 0.061000001
0.73100001 1.876 0.063000001
0.73100001 1.878 0.064999998
0.73199999 1.88 0.067000002
0.73400003 1.882 0.068999998
0.73500001 1.886 0.071000002
0.73699999 1.891 0.074000001
0.73900002 1.896 0.075999998
0.741 1.901 0.078000002
0.73000002 1.8609999 -0.163
0.73100001 1.864 -0.161
0.73299998 1.869 -0.16
0.736 1.877 -0.15899999
0.73799998 1.882 -0.15700001
0.73900002 1.8839999 -0.155
0.74000001 1.886 -0.153
0.74000001 1.887 -0.15099999
0.73900002 1.885 -0.149
0.736 1.8789999 -0.146
0.73400003 1.872 -0.14399999
0.73100001 1.864 -0.142
0.72899997 1.859 -0.132
0.73699999 1.88 -0.131
0.74400002 1.898 -0.13
0.75 1.9119999 -0.12899999
0.75300002 1.9220001 -0.12800001
0.755 1.926 -0.126
0.75599998 1.9299999 -0.124
0.75800002 1.934 -0.123
0.759 1.937 -0.121
0.759 1.938 -0.119
0.76200002 1.9450001 -0.068000004
0.75199997 1.9220001 -0.066
0.741 1.893 -0.061999999
0.77700001 1.987 -0.0040000002
0.778 1.988 -0.0020000001
0.778 1.988 0
0.778 1.987 0.003
0.77700001 1.985 0.0049999999
0.77499998 1.9809999 0.0070000002
0.77100003 1.971 0.0089999996
0.764 1.954 0.011
0.72899997 1.864 0.041000001
0.73299998 1.873 0.044
0.736 1.88 0.046
0.73799998 1.8839999 0.048
0.73799998 1.8839999 0.050000001
0.73699999 1.883 0.052000001
0.73500001 1.8789999 0.052999999
0.73400003 1.876 0.055
0.73400003 1.875 0.057
0.73400003 1.875 0.059
0.73400003 1.876 0.061000001
0.73400003 1.876 0.063000001
0.73400003 1.876 0.064999998
0.73500001 1.878 0.067000002
0.736 1.88 0.068999998
0.73799998 1.8839999 0.071000002
0.73900002 1.888 0.072999999
0.741 1.893 0.075999998
0.74299997 1.898 0.078000002
0.73199999 1.857 -0.163
0.73299998 1.859 -0.161
0.73500001 1.865 -0.15899999
0.73799998 1.872 -0.15800001
0.74000001 1.878 -0.15700001
0.741 1.88 -0.155
0.741 1.881 -0.153
0.741 1.881 -0.15099999
0.74000001 1.878 -0.148
0.73799998 1.873 -0.146
0.73400003 1.864 -0.14300001
0.73100001 1.858 -0.132
0.74000001 1.88 -0.131
0.74800003 1.9 -0.131
0.75599998 1.918 -0.13
0.76099998 1.932 -0.12899999
0.76499999 1.942 -0.127
0.76800001 1.949 -0.126
0.76899999 1.954 -0.124
0.76999998 1.956 -0.122
0.77100003 1.957 -0.12
0.76899999 1.954 -0.118
0.76499999 1.9450001 -0.115
0.76599997 1.948 -0.072999999
0.76200002 1.936 -0.07
0.755 1.918 -0.068000004
0.74599999 1.896 -0.064000003
0.736 1.8710001 -0.061999999
0.77700001 1.976 0
0.77600002 1.972 0.003
0.773 1.966 0.0049999999
0.76999998 1.959 0.0070000002
0.764 1.944 0.0089999996
0.75599998 1.923 0.011
0.74699998 1.899 0.013
0.73699999 1.873 0.014
0.736 1.872 0.041999999
0.741 1.883 0.044
0.74400002 1.892 0.046
0.745 1.8940001 0.048
0.74299997 1.891 0.050000001
0.74199998 1.887 0.052000001
0.741 1.883 0.052999999
0.73900002 1.88 0.055
0.73900002 1.877 0.057
0.73799998 1.876 0.059
0.73799998 1.876 0.061000001
0.73799998 1.875 0.063000001
0.73699999 1.874 0.064999998
0.73799998 1.875 0.067000002
0.73900002 1.878 0.068999998
0.741 1.882 0.071000002
0.74199998 1.886 0.072999999
0.736 1.858 -0.15899999
0.73900002 1.865 -0.15800001
0.74000001 1.87 -0.156
0.741 1.872 -0.154
0.741 1.872 -0.152
0.74000001 1.87 -0.15000001
0.73900002 1.8660001 -0.148
0.73699999 1.86 -0.145
0.74400002 1.8789999 -0.131
0.75300002 1.903 -0.131
0.76099998 1.9220001 -0.13
0.76700002 1.937 -0.12899999
0.77100003 1.949 -0.12800001
0.77399999 1.957 -0.126
0.77600002 1.96 -0.125
0.77600002 1.961 -0.123
0.77600002 1.96 -0.12
0.773 1.955 -0.118
0.76899999 1.9450001 -0.115
0.74199998 1.8789999 -0.068000004
0.75599998 1.914 -0.068000004
0.74900001 1.8940001 -0.064999998
0.73900002 1.87 -0.061999999
0.77499998 1.962 0
0.77200001 1.955 0.003
0.76899999 1.947 0.0049999999
0.76499999 1.938 0.0070000002
0.759 1.9220001 0.0089999996
0.75099999 1.9 0.0099999998
0.74199998 1.877 0.012
0.73699999 1.865 0.039000001
0.74400002 1.882 0.041999999
0.74800003 1.8940001 0.044
0.75099999 1.901 0.046
0.75099999 1.901 0.048
0.74900001 1.895 0.050000001
0.74699998 1.89 0.052000001
0.74599999 1.886 0.054000001
0.74400002 1.882 0.056000002
0.74199998 1.8789999 0.057
0.741 1.877 0.059
0.741 1.876 0.061000001
0.74000001 1.875 0.063000001
0.74000001 1.873 0.064999998
0.741 1.874 0.067000002
0.74199998 1.877 0.068999998
0.74299997 1.881 0.071000002
0.745 1.886 0.072999999
0.73900002 1.858 -0.15700001
0.74000001 1.8609999 -0.155
0.74000001 1.8609999 -0.153
0.73900002 1.859 -0.15099999
0.73699999 1.854 -0.149
0.74400002 1.8710001 -0.131
0.755 1.899 -0.131
0.764 1.9220001 -0.13
0.77100003 1.939 -0.12899999
0.77499998 1.948 -0.12800001
0.77700001 1.955 -0.126
0.77899998 1.959 -0.125
0.77899998 1.96 -0.123
0.778 1.9579999 -0.12
0.77499998 1.95 -0.118
0.76999998 1.938 -0.115
0.74400002 1.87 -0.109
0.759 1.913 -0.068000004
0.75300002 1.895 -0.064999998
0.745 1.874 -0.061999999
0.74900001 1.888 -0.001
0.76800001 1.9349999 0.001
0.76599997 1.9299999 0.003
0.76300001 1.9220001 0.0049999999
0.759 1.913 0.0060000001
0.75300002 1.898 0.0080000004
0.745 1.878 0.0099999998
0.73799998 1.859 0.012
0.74000001 1.865 0.037999999
0.74699998 1.882 0.039999999
0.75400001 1.898 0.041999999
0.75700003 1.9069999 0.044
0.75800002 1.91 0.046
0.75700003 1.909 0.048
0.75599998 1.904 0.050000001
0.75400001 1.899 0.052000001
0.75199997 1.8940001 0.054000001
0.75 1.888 0.056000002
0.74699998 1.881 0.057
0.745 1.877 0.059
0.745 1.876 0.061000001
0.74400002 1.875 0.063000001
0.74299997 1.872 0.064999998
0.74299997 1.873 0.067000002
0.745 1.876 0.068999998
0.74599999 1.8789999 0.071000002
0.74800003 1.8839999 0.072999999
0.80500001 2.0079999 -0.19400001
0.77200001 1.933 -0.12899999
0.77600002 1.943 -0.12800001
0.778 1.948 -0.126
0.778 1.949 -0.124
0.778 1.949 -0.122
0.778 1.949 -0.12
0.77499998 1.942 -0.118
0.76999998 1.929 -0.115
0.76099998 1.9069999 -0.111
0.74800003 1.875 -0.107
0.74900001 1.877 -0.063000001
0.74199998 1.86 -0.059999999
0.74199998 1.86 -0.0070000002
0.75199997 1.887 -0.0049999999
0.75800002 1.901 -0.003
0.759 1.902 -0.001
0.759 1.903 0.001
0.759 1.902 0.0020000001
0.75700003 1.897 0.0040000002
0.75300002 1.8890001 0.0060000001
0.74800003 1.876 0.0080000004
0.741 1.859 0.0099999998
0.74199998 1.8609999 0.035
0.74900001 1.878 0.037999999
0.755 1.893 0.039999999
0.75999999 1.905 0.041999999
0.76200002 1.911 0.044
0.76200002 1.9119999 0.046
0.76099998 1.91 0.048
0.759 1.903 0.050000001
0.75700003 1.897 0.052000001
0.755 1.892 0.054000001
0.75199997 1.886 0.056000002
0.75 1.881 0.057
0.74900001 1.878 0.059
0.74800003 1.876 0.061000001
0.74699998 1.874 0.063000001
0.74599999 1.872 0.064999998
0.74599999 1.872 0.067000002
0.74800003 1.874 0.068999998
0.74900001 1.878 0.071000002
0.75099999 1.882 0.072999999
1.153 2.869 -0.27700001
0.77499998 1.933 -0.125
0.77499998 1.932 -0.123
0.77499998 1.932 -0.121
0.77499998 1.934 -0.119
0.77200001 1.926 -0.116
0.76599997 1.91 -0.114
0.75599998 1.887 -0.11
0.74400002 1.857 -0.106
0.74599999 1.864 -0.0049999999
0.75199997 1.876 -0.003
0.75199997 1.8789999 -0.001
0.75300002 1.88 0.001
0.75400001 1.882 0.0020000001
0.75199997 1.878 0.0040000002
0.74900001 1.869 0.0060000001
0.74400002 1.858 0.0080000004
0.74400002 1.858 0.033
0.75 1.873 0.035999998
0.75700003 1.89 0.037999999
0.76200002 1.902 0.039999999
0.76499999 1.908 0.041999999
0.76599997 1.911 0.044
0.76599997 1.911 0.046
0.764 1.9069999 0.048
0.76200002 1.901 0.050000001
0.759 1.8940001 0.052000001
0.75599998 1.888 0.054000001
0.75400001 1.883 0.056000002
0.75300002 1.88 0.057
0.75199997 1.877 0.059
0.75099999 1.874 0.061000001
0.75 1.8710001 0.063000001
0.74900001 1.869 0.064999998
0.74900001 1.869 0.067000002
0.75 1.873 0.068999998
0.80900002 2.0079999 -0.19400001
0.75099999 1.865 -0.109
0.74800003 1.859 -0.003
0.75 1.864 -0.001
0.75099999 1.867 0.001
0.75199997 1.868 0.0020000001
0.75 1.865 0.0040000002
0.74699998 1.8559999 0.0060000001
0.74699998 1.8559999 0.030999999
0.75199997 1.868 0.034000002
0.75700003 1.882 0.035999998
0.764 1.898 0.037999999
0.76800001 1.9069999 0.039999999
0.76800001 1.909 0.041999999
0.76800001 1.909 0.044
0.76800001 1.9069999 0.046
0.76599997 1.903 0.048
0.764 1.897 0.050000001
0.76099998 1.891 0.052000001
0.75800002 1.8839999 0.054000001
0.75700003 1.88 0.056000002
0.75599998 1.878 0.057
0.755 1.875 0.059
0.75300002 1.872 0.061000001
0.75199997 1.87 0.063000001
0.75199997 1.868 0.064999998
0.75 1.855 0.029999999
0.75400001 1.8660001 0.032000002
0.759 1.878 0.034000002
0.764 1.89 0.035999998
0.76800001 1.9 0.037999999
0.76999998 1.906 0.039999999
0.77100003 1.9069999 0.041999999
0.76999998 1.906 0.044
0.76899999 1.902 0.046
0.76700002 1.897 0.048
0.76499999 1.892 0.050000001
0.76300001 1.887 0.052000001
0.76099998 1.881 0.054000001
0.759 1.878 0.056000002
0.759 1.878 0.057
1.316 3.237 -0.096000001
1.316 3.237 -0.096000001
0.75300002 1.854 0.016000001
0.75599998 1.862 0.029999999
0.76099998 1.874 0.032000002
0.76599997 1.885 0.034000002
0.76899999 1.893 0.035999998
0.77200001 1.899 0.037999999
0.77200001 1.902 0.039999999
0.77200001 1.901 0.041999999
0.77100003 1.899 0.044
0.76999998 1.895 0.046
0.76800001 1.89 0.048
0.76599997 1.885 0.050000001
0.764 1.881 0.052000001
0.76300001 1.878 0.052999999
0.76300001 1.877 0.055
0.76300001 1.878 0.057
1.026 2.5109999 -0.064000003
1.026 2.5109999 -0.064000003
0.77100003 1.89 0.0080000004
0.76999998 1.8890001 0.0099999998
0.76899999 1.8839999 0.012
0.76499999 1.876 0.014
0.76099998 1.8660001 0.016000001
0.75599998 1.854 0.017999999
0.75700003 1.8559999 0.029999999
0.75999999 1.863 0.032000002
0.76300001 1.869 0.034000002
0.76599997 1.877 0.035999998
0.76899999 1.885 0.037999999
0.77100003 1.89 0.039999999
0.77100003 1.89 0.041999999
0.76999998 1.887 0.044
0.76700002 1.881 0.046
0.76599997 1.878 0.048
0.76599997 1.878 0.050000001
0.76599997 1.877 0.052000001
0.76499999 1.875 0.052999999
0.76499999 1.874 0.055
0.76499999 1.874 0.057
0.76700002 1.8710001 -0.001
0.77399999 1.888 0.001
0.77899998 1.9 0.003
0.78100002 1.9069999 0.0040000002
0.78200001 1.909 0.0060000001
0.78200001 1.908 0.0080000004
0.77999997 1.904 0.0099999998
0.77700001 1.896 0.012
0.77200001 1.883 0.014
0.76700002 1.872 0.016000001
0.76300001 1.8609999 0.017999999
0.75999999 1.854 0.02
0.759 1.851 0.022
0.759 1.851 0.032000002
0.76099998 1.8559999 0.034000002
0.76300001 1.863 0.035999998
0.76700002 1.872 0.037999999
0.76899999 1.876 0.039999999
0.76999998 1.878 0.041999999
0.76899999 1.876 0.044
0.76700002 1.8710001 0.046
0.76599997 1.87 0.048
0.76700002 1.872 0.050000001
0.76700002 1.872 0.050999999
0.76700002 1.8710001 0.052999999
0.76599997 1.86 -0.003
0.77600002 1.8839999 -0.001
0.78299999 1.901 0.001
0.787 1.9119999 0.003
0.78899997 1.918 0.0049999999
0.78899997 1.918 0.0070000002
0.78799999 1.915 0.0089999996
0.78600001 1.91 0.0099999998
0.78299999 1.901 0.012
0.77700001 1.888 0.014
0.77200001 1.876 0.016000001
0.76800001 1.8660001 0.017999999
0.764 1.857 0.02
0.76300001 1.852 0.035
0.76599997 1.86 0.037999999
0.76800001 1.865 0.039999999
0.76899999 1.8660001 0.041999999
0.76899999 1.8660001 0.044
0.76800001 1.864 0.045000002
0.76800001 1.865 0.046999998
0.76899999 1.868 0.048999999
0.76999998 1.869 0.050999999
0.76999998 1.868 0.052999999
0.80599999 1.949 -0.057
0.80500001 1.947 -0.055
0.80400002 1.943 -0.052999999
0.801 1.937 -0.050000001
0.79799998 1.929 -0.048
0.79500002 1.921 -0.046
0.79000002 1.909 -0.044
0.78200001 1.892 -0.041000001
0.77600002 1.876 -0.039000001
0.77100003 1.863 -0.037
0.76499999 1.848 -0.0049999999
0.77200001 1.8660001 -0.003
0.77999997 1.887 -0.001
0.787 1.903 0.001
0.79100001 1.913 0.003
0.79299998 1.9170001 0.0049999999
0.79299998 1.9170001 0.0070000002
0.792 1.915 0.0089999996
0.79000002 1.91 0.011
0.787 1.902 0.013
0.78200001 1.891 0.014
0.77700001 1.8789999 0.016000001
0.77100003 1.864 0.017999999
0.76599997 1.852 0.02
0.76599997 1.851 0.037
0.76800001 1.8559999 0.039000001
0.76899999 1.858 0.041000001
0.76899999 1.859 0.043000001
0.76899999 1.859 0.045000002
0.76999998 1.862 0.046999998
0.77200001 1.8660001 0.048999999
0.78799999 1.897 -0.057
0.80699998 1.943 -0.057
0.80599999 1.9400001 -0.054000001
0.80400002 1.934 -0.052000001
0.80000001 1.925 -0.050000001
0.79500002 1.914 -0.048
0.79000002 1.9 -0.045000002
0.78299999 1.883 -0.043000001
0.77399999 1.864 -0.039999999
0.76899999 1.852 -0.0049999999
0.77700001 1.87 -0.003
0.78600001 1.892 -0.001
0.792 1.906 0.001
0.79400003 1.9119999 0.003
0.796 1.915 0.0049999999
0.796 1.915 0.0070000002
0.79500002 1.913 0.0089999996
0.79299998 1.908 0.0099999998
0.78799999 1.896 0.012
0.77999997 1.877 0.014
0.77399999 1.862 0.016000001
0.76800001 1.848 0.017999999
0.76800001 1.85 0.039000001
0.76899999 1.851 0.041000001
0.76999998 1.852 0.043000001
0.76999998 1.853 0.045000002
0.77100003 1.8559999 0.046999998
0.77200001 1.859 0.048999999
0.81 1.941 -0.061000001
0.81 1.9400001 -0.057999998
0.80900002 1.938 -0.056000002
0.80699998 1.9349999 -0.054000001
0.80400002 1.927 -0.052000001
0.79900002 1.914 -0.048999999
0.792 1.898 -0.046999998
0.78500003 1.881 -0.045000002
0.77600002 1.8609999 -0.043000001
0.773 1.853 -0.0049999999
0.77999997 1.868 -0.003
0.78600001 1.8839999 -0.001
0.792 1.897 0.001
0.79500002 1.906 0.003
0.79699999 1.911 0.0049999999
0.79699999 1.91 0.0070000002
0.796 1.9069999 0.0089999996
0.79400003 1.902 0.0099999998
0.78899997 1.8890001 0.012
0.77999997 1.869 0.014
0.773 1.852 0.016000001
0.77100003 1.846 0.039000001
0.77200001 1.848 0.041000001
0.77200001 1.849 0.043000001
0.77200001 1.85 0.045000002
0.773 1.852 0.046999998
0.77399999 1.855 0.048999999
0.80699998 1.925 -0.056000002
0.80500001 1.92 -0.054000001
0.801 1.91 -0.050999999
0.79500002 1.897 -0.048999999
0.78799999 1.88 -0.046999998
0.77999997 1.86 -0.045000002
0.77700001 1.854 -0.0049999999
0.78399998 1.869 -0.003
0.79000002 1.883 -0.001
0.79400003 1.895 0.001
0.79799998 1.903 0.003
0.79900002 1.9069999 0.0049999999
0.79900002 1.906 0.0070000002
0.79799998 1.903 0.0080000004
0.79500002 1.896 0.0099999998
0.78899997 1.883 0.012
0.78100002 1.863 0.014
0.77399999 1.846 0.016000001
0.77399999 1.845 0.041000001
0.77399999 1.846 0.043000001
0.77399999 1.846 0.045000002
0.78200001 1.8559999 -0.046999998
0.78200001 1.8559999 -0.0049999999
0.78799999 1.8710001 -0.003
0.79400003 1.885 -0.001
0.79799998 1.8940001 0.001
0.80000001 1.899 0.003
0.801 1.902 0.0049999999
0.80000001 1.902 0.0060000001
0.79900002 1.898 0.0080000004
0.796 1.891 0.0099999998
0.79000002 1.878 0.012
0.78200001 1.858 0.014
0.77899998 1.8380001 -0.154
0.77999997 1.841 -0.153
0.77899998 1.839 -0.15099999
0.78100002 1.844 -0.13
0.78399998 1.851 -0.12800001
0.78500003 1.852 -0.126
2.1800001 5.1490002 -0.294
2.1800001 5.1490002 -0.294
0.77999997 1.844 -0.0070000002
0.787 1.86 -0.0049999999
0.792 1.8710001 -0.003
0.79500002 1.88 -0.001
0.79799998 1.886 0.001
0.80000001 1.891 0.0020000001
0.801 1.8940001 0.0040000002
0.801 1.895 0.0060000001
0.80000001 1.892 0.0080000004
0.79699999 1.885 0.0099999998
0.792 1.873 0.012
0.78399998 1.855 0.014
0.78200001 1.836 -0.156
0.78299999 1.839 -0.154
0.78399998 1.841 -0.153
0.78299999 1.839 -0.15099999
0.78500003 1.845 -0.131
0.78899997 1.853 -0.13
0.79100001 1.859 -0.12899999
0.792 1.863 -0.127
2.1900001 5.1490002 -0.294
2.1900001 5.1490002 -0.294
0.78899997 1.857 -0.018999999
0.78399998 1.845 -0.017000001
0.78200001 1.842 -0.0070000002
0.78799999 1.854 -0.0049999999
0.79100001 1.86 -0.003
0.79000002 1.859 -0.001
0.792 1.864 0.001
0.796 1.874 0.0020000001
0.79900002 1.882 0.0040000002
0.801 1.885 0.0060000001
0.801 1.8839999 0.0080000004
0.79799998 1.878 0.0099999998
0.79299998 1.867 0.012
0.78600001 1.851 0.014
0.78600001 1.837 -0.15800001
0.78799999 1.841 -0.15700001
0.78899997 1.844 -0.155
0.78899997 1.845 -0.153
0.787 1.841 -0.15099999
0.78799999 1.8430001 -0.132
0.79299998 1.855 -0.13
0.796 1.863 -0.12899999
0.79799998 1.8660001 -0.12800001
2.198 5.1459999 -0.294
2.198 5.1459999 -0.294
0.81999999 1.9220001 -0.093000002
0.81999999 1.92 -0.090999998
0.787 1.844 -0.041000001
0.78799999 1.846 -0.039000001
0.787 1.844 -0.037
0.787 1.844 -0.035
0.78799999 1.846 -0.033
0.79799998 1.868 -0.018999999
0.792 1.855 -0.017000001
0.78899997 1.848 -0.015
0.78799999 1.845 -0.013
0.78500003 1.84 -0.011
0.78600001 1.8430001 -0.003
0.787 1.8430001 -0.001
0.78899997 1.849 0.001
0.79400003 1.86 0.0020000001
0.79699999 1.868 0.0040000002
0.79900002 1.873 0.0060000001
0.80000001 1.873 0.0080000004
0.79699999 1.869 0.0099999998
0.79400003 1.86 0.012
0.78799999 1.846 0.014
0.79000002 1.8380001 -0.15800001
0.792 1.8430001 -0.15700001
0.79299998 1.845 -0.155
0.79299998 1.845 -0.153
0.79000002 1.84 -0.15099999
0.79400003 1.85 -0.13
0.79900002 1.8609999 -0.12899999
0.801 1.8660001 -0.12800001
1.101 2.572 -0.147
1.101 2.572 -0.147
0.82499999 1.9220001 -0.093000002
0.824 1.92 -0.090999998
0.82200003 1.9170001 -0.088
0.81999999 1.9119999 -0.086000003
0.79299998 1.849 -0.044
0.79799998 1.8609999 -0.043000001
0.801 1.869 -0.041000001
0.80299997 1.874 -0.039000001
0.80400002 1.876 -0.037
0.80500001 1.877 -0.035
0.80599999 1.8789999 -0.033
0.80599999 1.881 -0.030999999
0.80699998 1.883 -0.028999999
0.80800003 1.885 -0.027000001
0.80900002 1.888 -0.025
0.80900002 1.888 -0.023
0.80800003 1.8839999 -0.021
0.80400002 1.877 -0.018999999
0.80000001 1.865 -0.017000001
0.79500002 1.854 -0.015
0.79000002 1.8430001 -0.013
0.79100001 1.845 0.0020000001
0.79500002 1.854 0.0040000002
0.79799998 1.862 0.0060000001
0.79900002 1.864 0.0080000004
0.79699999 1.86 0.0099999998
0.79400003 1.854 0.012
0.79000002 1.842 0.014
0.79000002 1.831 -0.16
0.79299998 1.8380001 -0.15800001
0.79500002 1.8430001 -0.15700001
0.796 1.844 -0.155
0.79500002 1.844 -0.153
0.79299998 1.8380001 -0.15099999
0.79299998 1.839 -0.12899999
0.79900002 1.853 -0.12800001
0.80199999 1.86 -0.127
0.80500001 1.8660001 -0.126
0.80599999 1.868 -0.124
0.82599998 1.916 -0.096000001
0.82700002 1.919 -0.094999999
0.82700002 1.919 -0.093000002
0.82599998 1.9170001 -0.090000004
0.82499999 1.913 -0.088
0.82300001 1.909 -0.086000003
0.81800002 1.898 -0.083999999
0.81 1.881 -0.079999998
0.796 1.848 -0.046
0.80500001 1.869 -0.045000002
0.81099999 1.883 -0.043000001
0.81400001 1.89 -0.041000001
0.81599998 1.8940001 -0.039000001
0.81699997 1.896 -0.037
0.81699997 1.897 -0.035
0.81699997 1.897 -0.033
0.81599998 1.896 -0.030999999
0.81599998 1.8940001 -0.028999999
0.815 1.8940001 -0.027000001
0.815 1.893 -0.025
0.81400001 1.892 -0.023
0.81300002 1.8890001 -0.021
0.80900002 1.881 -0.018999999
0.80400002 1.868 -0.017000001
0.79699999 1.852 -0.015
0.79100001 1.837 0.0040000002
0.796 1.848 0.0060000001
0.79799998 1.853 0.0080000004
0.79699999 1.852 0.0099999998
0.79500002 1.847 0.012
0.79100001 1.839 0.014
0.79400003 1.832 -0.16
0.79699999 1.839 -0.15899999
0.79900002 1.8430001 -0.15700001
0.79900002 1.844 -0.155
0.79900002 1.8430001 -0.153
0.79699999 1.839 -0.15099999
0.79299998 1.831 -0.148
0.79699999 1.841 -0.12800001
0.80000001 1.847 -0.127
0.80199999 1.852 -0.125
0.80400002 1.855 -0.123
0.82700002 1.911 -0.096000001
0.82800001 1.914 -0.093999997
0.82800001 1.915 -0.092
0.82800001 1.9119999 -0.090000004
0.82599998 1.909 -0.088
0.824 1.905 -0.086000003
0.81900001 1.893 -0.082999997
0.81099999 1.875 -0.079999998
0.80599999 1.864 -0.046
0.81400001 1.882 -0.045000002
0.81900001 1.8940001 -0.043000001
0.82099998 1.899 -0.041999999
0.82300001 1.902 -0.039999999
0.82300001 1.902 -0.037999999
0.82200003 1.902 -0.035999998
0.82200003 1.901 -0.034000002
0.82099998 1.899 -0.032000002
0.81999999 1.896 -0.028999999
0.81900001 1.8940001 -0.027000001
0.81900001 1.893 -0.025
0.81800002 1.89 -0.023
0.81599998 1.887 -0.021
0.81099999 1.876 -0.018999999
0.80299997 1.857 -0.017000001
0.79500002 1.839 -0.015
0.79500002 1.84 0.0080000004
0.796 1.842 0.0099999998
0.79500002 1.84 0.012
0.79699999 1.83 -0.16
0.79900002 1.837 -0.15800001
0.801 1.841 -0.15700001
0.801 1.842 -0.155
0.801 1.84 -0.153
0.79900002 1.836 -0.15099999
0.796 1.829 -0.148
0.796 1.831 -0.125
0.79799998 1.835 -0.123
0.80000001 1.8380001 -0.122
0.80500001 1.853 -0.094999999
0.82700002 1.903 -0.096000001
0.82800001 1.906 -0.093999997
0.82800001 1.906 -0.092
0.82800001 1.903 -0.090000004
0.82499999 1.898 -0.088
0.82099998 1.8890001 -0.085000001
0.81400001 1.874 -0.082999997
0.80500001 1.853 -0.079999998
0.81300002 1.872 -0.046999998
0.81999999 1.888 -0.045000002
0.824 1.898 -0.043000001
0.82599998 1.903 -0.041999999
0.82700002 1.906 -0.039999999
0.82700002 1.906 -0.037999999
0.82700002 1.905 -0.035999998
0.82700002 1.903 -0.034000002
0.82599998 1.9 -0.032000002
0.824 1.897 -0.028999999
0.82300001 1.895 -0.027000001
0.82200003 1.892 -0.025
0.81999999 1.888 -0.023
0.81699997 1.881 -0.021
0.81099999 1.867 -0.018999999
0.80199999 1.847 -0.017000001
0.79900002 1.829 -0.16
0.80299997 1.836 -0.15800001
0.80500001 1.841 -0.15700001
0.80500001 1.842 -0.155
0.80400002 1.84 -0.153
0.80199999 1.834 -0.15099999
0.824 1.888 -0.094999999
0.82499999 1.89 -0.093000002
0.82499999 1.8890001 -0.090999998
0.82300001 1.886 -0.089000002
0.81999999 1.878 -0.086999997
0.815 1.867 -0.085000001
0.80800003 1.851 -0.082000002
0.79900002 1.832 -0.079000004
0.815 1.869 -0.046
0.82300001 1.886 -0.045000002
0.82800001 1.897 -0.043000001
0.82999998 1.902 -0.041999999
0.83099997 1.904 -0.039999999
0.83099997 1.905 -0.037999999
0.83099997 1.905 -0.035999998
0.83099997 1.904 -0.034000002
0.82999998 1.902 -0.032000002
0.82800001 1.899 -0.029999999
0.82700002 1.896 -0.028000001
0.82499999 1.893 -0.025
0.82200003 1.886 -0.023
0.81699997 1.874 -0.021
0.81 1.857 -0.018999999
0.79900002 1.834 -0.017000001
0.80199999 1.827 -0.16
0.80599999 1.835 -0.15800001
0.80800003 1.839 -0.15700001
0.80800003 1.84 -0.155
0.80699998 1.837 -0.153
0.80400002 1.832 -0.15099999
0.80400002 1.8329999 -0.081
0.82999998 1.895 -0.043000001
0.83200002 1.9 -0.041999999
0.83399999 1.903 -0.039999999
0.83399999 1.904 -0.037999999
0.83399999 1.904 -0.035999998
0.83399999 1.904 -0.034000002
0.83399999 1.903 -0.032000002
0.83200002 1.9 -0.029999999
0.83099997 1.896 -0.028000001
0.829 1.891 -0.025
0.80500001 1.825 -0.16
0.80800003 1.832 -0.15800001
0.81 1.836 -0.15700001
0.80900002 1.835 -0.155
0.80800003 1.832 -0.153
0.80599999 1.827 -0.15099999
0.83200002 1.891 -0.043000001
0.83499998 1.897 -0.041999999
0.83600003 1.9 -0.039999999
0.83700001 1.902 -0.037999999
0.83700001 1.903 -0.035999998
0.83700001 1.903 -0.034000002
0.83700001 1.902 -0.032000002
0.83600003 1.9 -0.029999999
0.83399999 1.895 -0.028000001
0.83099997 1.888 -0.025
0.80500001 1.831 0.0099999998
0.80900002 1.826 -0.15800001
0.81 1.8279999 -0.15700001
0.81 1.8279999 -0.155
0.80800003 1.824 -0.152
0.81199998 1.837 -0.046
0.82499999 1.867 -0.045000002
0.83399999 1.886 -0.043000001
0.83700001 1.892 -0.041999999
0.83899999 1.897 -0.039999999
0.83999997 1.9 -0.037999999
0.83999997 1.901 -0.035999998
0.83999997 1.901 -0.034000002
0.83999997 1.899 -0.032000002
0.838 1.897 -0.029999999
0.83600003 1.892 -0.028000001
0.83200002 1.883 -0.025
0.80900002 1.831 0.0080000004
0.80800003 1.83 0.0099999998
0.81300002 1.8279999 -0.12899999
0.815 1.8329999 -0.12800001
0.815 1.8329999 -0.126
0.81400001 1.832 -0.124
0.81300002 1.829 -0.122
0.82499999 1.858 -0.045000002
0.83399999 1.88 -0.043000001
0.83700001 1.887 -0.041000001
0.83999997 1.893 -0.039000001
0.84200001 1.896 -0.037999999
0.84299999 1.898 -0.035999998
0.84299999 1.898 -0.034000002
0.84200001 1.897 -0.032000002
0.83999997 1.8940001 -0.028999999
0.83700001 1.886 -0.027000001
0.83099997 1.873 -0.025
0.81800002 1.8329999 -0.132
0.82099998 1.84 -0.13
0.824 1.846 -0.12899999
0.82499999 1.848 -0.127
0.82499999 1.849 -0.125
0.824 1.846 -0.123
0.82200003 1.842 -0.12
0.81900001 1.835 -0.118
0.81699997 1.832 -0.072999999
0.82300001 1.847 -0.044
0.833 1.869 -0.043000001
0.83600003 1.875 -0.041000001
0.838 1.88 -0.039000001
0.84100002 1.887 -0.037
0.84200001 1.888 -0.035
0.84100002 1.886 -0.033
0.83899999 1.881 -0.030999999
0.83499998 1.874 -0.028999999
0.829 1.8609999 -0.027000001
0.82099998 1.842 -0.025
0.82099998 1.83 -0.133
0.82599998 1.842 -0.132
0.829 1.848 -0.131
0.83099997 1.853 -0.12899999
0.833 1.857 -0.127
0.833 1.858 -0.126
0.83200002 1.8559999 -0.124
0.83099997 1.853 -0.121
0.82800001 1.847 -0.119
0.829 1.85 -0.074000001
0.82499999 1.8430001 -0.071999997
0.81699997 1.826 -0.044
0.82499999 1.8430001 -0.043000001
0.82999998 1.854 -0.041000001
0.83399999 1.863 -0.039000001
0.838 1.8710001 -0.037
0.838 1.872 -0.035
0.83499998 1.8660001 -0.033
0.83200002 1.86 -0.030999999
0.82999998 1.853 -0.028999999
0.824 1.84 -0.027000001
0.82200003 1.825 -0.13500001
0.82800001 1.8380001 -0.134
0.83200002 1.848 -0.133
0.83499998 1.853 -0.131
0.83700001 1.857 -0.12899999
0.838 1.8609999 -0.12800001
0.83899999 1.862 -0.126
0.838 1.8609999 -0.124
0.83700001 1.859 -0.122
0.83499998 1.854 -0.119
0.81999999 1.825 -0.039999999
0.82700002 1.8380001 -0.039000001
0.83099997 1.849 -0.037
0.83099997 1.849 -0.035
0.82800001 1.841 -0.033
0.82499999 1.834 -0.030999999
0.82200003 1.83 -0.028999999
0.82599998 1.827 -0.13699999
0.83099997 1.837 -0.13600001
0.83399999 1.844 -0.13500001
0.83700001 1.851 -0.133
0.83899999 1.855 -0.132
0.84100002 1.859 -0.13
0.84299999 1.863 -0.12800001
0.84299999 1.865 -0.126
0.84299999 1.8660001 -0.124
0.84299999 1.865 -0.122
0.84299999 1.864 -0.12
0.82800001 1.821 -0.141
0.83099997 1.8279999 -0.139
0.83399999 1.837 -0.138
0.83700001 1.8430001 -0.13600001
0.83899999 1.848 -0.13500001
0.84100002 1.851 -0.133
0.84200001 1.854 -0.131
0.84299999 1.857 -0.12899999
0.84500003 1.8609999 -0.12800001
0.84600002 1.864 -0.126
0.847 1.8660001 -0.124
0.847 1.8660001 -0.122
0.847 1.865 -0.12
0.83099997 1.821 -0.14399999
0.83399999 1.826 -0.14300001
0.83499998 1.83 -0.141
0.838 1.835 -0.14
0.83999997 1.841 -0.138
0.84200001 1.846 -0.13699999
0.84299999 1.849 -0.13500001
0.84399998 1.851 -0.133
0.84500003 1.852 -0.131
0.84600002 1.854 -0.12899999
0.847 1.858 -0.12800001
0.84899998 1.8609999 -0.126
0.85000002 1.863 -0.124
0.85000002 1.864 -0.122
0.84899998 1.863 -0.12
0.84799999 1.8609999 -0.118
0.847 1.857 -0.116
0.83200002 1.814 -0.15000001
0.83399999 1.818 -0.148
0.83600003 1.823 -0.147
0.838 1.8279999 -0.145
0.83999997 1.832 -0.14399999
0.83999997 1.834 -0.142
0.84200001 1.837 -0.14
0.84299999 1.841 -0.138
0.84399998 1.8430001 -0.13699999
0.84500003 1.845 -0.13500001
0.84600002 1.846 -0.133
0.84600002 1.846 -0.131
0.847 1.848 -0.12899999
0.84799999 1.851 -0.127
0.85000002 1.857 -0.118
0.84899998 1.854 -0.116
0.83200002 1.8200001 -0.018999999
0.833 1.821 -0.017000001
0.83200002 1.8200001 -0.015
0.83600003 1.817 -0.152
0.838 1.822 -0.15000001
0.83999997 1.825 -0.149
0.84100002 1.8279999 -0.147
0.84299999 1.831 -0.146
0.84399998 1.8329999 -0.14399999
0.84399998 1.835 -0.142
0.84500003 1.837 -0.14
0.84600002 1.84 -0.138
0.84299999 1.834 -0.061999999
0.83600003 1.819 -0.059
0.83600003 1.8200001 -0.025
0.838 1.824 -0.023
0.83899999 1.8279999 -0.021
0.83999997 1.829 -0.018999999
0.83899999 1.827 -0.017000001
0.838 1.824 -0.015
0.83499998 1.819 -0.013
0.838 1.812 -0.156
0.84100002 1.819 -0.154
0.84299999 1.825 -0.153
0.84399998 1.8279999 -0.15099999
0.84399998 1.8279999 -0.149
0.84500003 1.829 -0.147
0.847 1.832 -0.146
0.84799999 1.834 -0.14399999
0.84799999 1.835 -0.142
0.84899998 1.837 -0.14
0.85000002 1.841 -0.139
0.85900003 1.86 -0.067000002
0.85699999 1.8559999 -0.064000003
0.85399997 1.851 -0.061999999
0.85000002 1.8430001 -0.059999999
0.84299999 1.8279999 -0.057999998
0.83999997 1.822 -0.027000001
0.84200001 1.826 -0.025
0.84299999 1.829 -0.023
0.84399998 1.831 -0.021
0.84500003 1.832 -0.018999999
0.84399998 1.831 -0.017000001
0.84299999 1.827 -0.015
0.83899999 1.819 -0.013
0.84100002 1.813 -0.15800001
0.84399998 1.818 -0.15700001
0.84600002 1.822 -0.155
0.847 1.825 -0.153
0.84799999 1.827 -0.15099999
0.84799999 1.8279999 -0.149
0.84899998 1.829 -0.147
0.84899998 1.83 -0.146
0.85000002 1.831 -0.14399999
0.85000002 1.832 -0.142
0.85000002 1.8329999 -0.14
0.85100001 1.836 -0.138
0.86299998 1.862 -0.067000002
0.86199999 1.86 -0.064999998
0.86000001 1.855 -0.063000001
0.85600001 1.847 -0.059999999
0.85100001 1.837 -0.057999998
0.84500003 1.825 -0.056000002
0.84100002 1.816 -0.029999999
0.84299999 1.821 -0.028999999
0.84500003 1.826 -0.027000001
0.847 1.83 -0.025
0.84899998 1.8329999 -0.023
0.85000002 1.835 -0.021
0.85000002 1.834 -0.018999999
0.84799999 1.831 -0.017000001
0.84500003 1.825 -0.015
0.84100002 1.8150001 -0.013
0.84399998 1.812 -0.16
0.84600002 1.8150001 -0.15800001
0.847 1.818 -0.156
0.84899998 1.821 -0.154
0.85000002 1.823 -0.153
0.85000002 1.825 -0.15099999
0.85100001 1.826 -0.149
0.85100001 1.827 -0.147
0.852 1.8279999 -0.146
0.852 1.829 -0.14399999
0.85299999 1.83 -0.142
0.97299999 2.0880001 -0.107
0.97299999 2.0880001 -0.107
0.86799997 1.865 -0.067000002
0.86699998 1.864 -0.064999998
0.866 1.8609999 -0.063000001
0.86400002 1.857 -0.061000001
0.861 1.851 -0.059
0.85699999 1.8430001 -0.056000002
0.852 1.832 -0.054000001
0.84500003 1.818 -0.052000001
0.847 1.821 -0.029999999
0.84799999 1.825 -0.028999999
0.85000002 1.8279999 -0.027000001
0.852 1.832 -0.025
0.85299999 1.834 -0.023
0.85299999 1.835 -0.021
0.85299999 1.834 -0.018999999
0.85000002 1.829 -0.017000001
0.84799999 1.812 -0.16
0.84899998 1.814 -0.15800001
0.85100001 1.817 -0.156
0.852 1.8200001 -0.155
0.85299999 1.822 -0.153
0.85299999 1.824 -0.15099999
0.85299999 1.824 -0.149
0.85399997 1.824 -0.147
0.85399997 1.826 -0.145
0.85500002 1.826 -0.14399999
0.85500002 1.826 -0.142
0.87099999 1.865 -0.071000002
0.87199998 1.8660001 -0.068999998
0.87199998 1.8660001 -0.067000002
0.87099999 1.865 -0.064999998
0.87 1.863 -0.063000001
0.86900002 1.8609999 -0.061000001
0.86699998 1.857 -0.059
0.86500001 1.852 -0.057
0.861 1.844 -0.054000001
0.85600001 1.832 -0.052000001
0.852 1.824 -0.030999999
0.85299999 1.827 -0.028999999
0.85399997 1.83 -0.027000001
0.85500002 1.831 -0.025
0.85600001 1.832 -0.023
0.85600001 1.834 -0.021
0.85500002 1.832 -0.018999999
0.85299999 1.827 -0.017000001
0.85100001 1.8099999 -0.16
0.852 1.813 -0.15800001
0.85399997 1.816 -0.15700001
0.85500002 1.819 -0.155
0.85600001 1.821 -0.153
0.85600001 1.823 -0.15099999
0.85600001 1.823 -0.149
0.85699999 1.823 -0.147
0.85699999 1.823 -0.145
0.85699999 1.823 -0.14300001
0.85699999 1.823 -0.141
0.86699998 1.847 -0.106
0.86799997 1.85 -0.104
0.87400001 1.864 -0.071000002
0.875 1.865 -0.068999998
0.875 1.865 -0.067000002
0.87400001 1.864 -0.064999998
0.87400001 1.862 -0.063000001
0.87300003 1.8609999 -0.061000001
0.87199998 1.859 -0.059
0.87 1.855 -0.057
0.85600001 1.825 -0.030999999
0.85699999 1.827 -0.028999999
0.85799998 1.829 -0.027000001
0.85799998 1.829 -0.025
0.85799998 1.829 -0.023
0.85799998 1.83 -0.021
0.85699999 1.8279999 -0.018999999
0.85600001 1.824 -0.017000001
0.85299999 1.818 -0.015
0.85399997 1.809 -0.16
0.85500002 1.811 -0.15800001
0.85600001 1.8150001 -0.15700001
0.85799998 1.818 -0.155
0.85900003 1.8200001 -0.153
0.85900003 1.821 -0.15099999
0.86000001 1.822 -0.149
0.86000001 1.822 -0.147
0.85900003 1.822 -0.145
0.85900003 1.821 -0.14300001
0.85900003 1.821 -0.141
0.87099999 1.847 -0.106
0.87199998 1.849 -0.104
0.87199998 1.851 -0.102
0.87199998 1.851 -0.1
0.87300003 1.852 -0.097999997
0.87400001 1.854 -0.096000001
0.85600001 1.816 -0.067000002
0.87800002 1.862 -0.067000002
0.87599999 1.8609999 -0.064999998
0.87599999 1.86 -0.063000001
0.87699997 1.8609999 -0.061000001
0.87599999 1.86 -0.059
0.875 1.857 -0.057
0.86000001 1.826 -0.027000001
0.86000001 1.826 -0.025
0.86000001 1.826 -0.023
0.85900003 1.826 -0.021
0.85799998 1.824 -0.018999999
0.85699999 1.8200001 -0.017000001
0.85500002 1.8150001 -0.015
0.85500002 1.804 -0.161
0.85600001 1.806 -0.16
0.85699999 1.808 -0.15800001
0.85799998 1.811 -0.156
0.85900003 1.814 -0.154
0.86000001 1.816 -0.153
0.861 1.817 -0.15099999
0.86199999 1.819 -0.149
0.86199999 1.819 -0.147
0.861 1.818 -0.145
0.861 1.817 -0.14300001
0.86000001 1.816 -0.141
0.87300003 1.8430001 -0.105
0.87400001 1.846 -0.104
0.87400001 1.847 -0.102
0.87400001 1.847 -0.1
0.87400001 1.848 -0.097999997
0.875 1.85 -0.096000001
0.87800002 1.8559999 -0.067000002
0.87599999 1.854 -0.064999998
0.87699997 1.854 -0.063000001
0.87800002 1.8559999 -0.061000001
0.87800002 1.8559999 -0.059
0.87699997 1.854 -0.057
0.86199999 1.823 -0.027000001
0.86199999 1.824 -0.025
0.86199999 1.824 -0.023
0.861 1.822 -0.021
0.86000001 1.8200001 -0.018999999
0.85900003 1.816 -0.017000001
0.85699999 1.812 -0.015
0.85500002 1.808 -0.013
0.85900003 1.803 -0.15899999
0.86000001 1.806 -0.15700001
0.861 1.809 -0.156
0.86199999 1.812 -0.154
0.86299998 1.814 -0.153
0.86400002 1.816 -0.15099999
0.86400002 1.816 -0.149
0.86400002 1.816 -0.147
0.86299998 1.8150001 -0.145
0.86299998 1.814 -0.14300001
0.86199999 1.813 -0.141
0.87300003 1.8380001 -0.105
0.875 1.841 -0.104
0.87599999 1.842 -0.102
0.87599999 1.8430001 -0.1
0.87599999 1.844 -0.097999997
0.87699997 1.846 -0.096000001
0.88 1.854 -0.059
0.88 1.853 -0.057
0.86400002 1.818 -0.023
0.86199999 1.8150001 -0.021
0.86000001 1.813 -0.018999999
0.85900003 1.8099999 -0.017000001
0.85799998 1.807 -0.015
0.86000001 1.799 -0.15899999
0.861 1.802 -0.15700001
0.86299998 1.8049999 -0.156
0.86400002 1.808 -0.154
0.86500001 1.8099999 -0.152
0.866 1.812 -0.15000001
0.866 1.812 -0.148
0.866 1.812 -0.146
0.86500001 1.811 -0.14399999
0.86500001 1.8099999 -0.142
0.86400002 1.809 -0.14
0.87599999 1.834 -0.105
0.87699997 1.837 -0.103
0.87800002 1.839 -0.102
0.87800002 1.84 -0.1
0.87800002 1.841 -0.097999997
0.87900001 1.842 -0.096000001
0.87900001 1.844 -0.054000001
0.87800002 1.842 -0.052000001
0.87699997 1.839 -0.050000001
0.875 1.836 -0.048
0.87199998 1.8279999 -0.039000001
0.87300003 1.831 -0.037
0.86500001 1.802 -0.154
0.866 1.804 -0.152
0.86699998 1.806 -0.15000001
0.86799997 1.808 -0.148
0.86799997 1.809 -0.146
0.86699998 1.808 -0.14399999
0.86699998 1.807 -0.142
0.866 1.8049999 -0.14
0.86500001 1.8049999 -0.138
0.86500001 1.804 -0.13600001
0.87900001 1.834 -0.105
0.88 1.836 -0.103
