ply
format ascii 1.0
comment PCL generated
element vertex 1792
property float x
property float y
property float z
element face 0
element camera 0
property float view_px
property float view_py
property float view_pz
property float x_axisx
property float x_axisy
property float x_axisz
property float y_axisx
property float y_axisy
property float y_axisz
property float z_axisx
property float z_axisy
property float z_axisz
property float focal
property float scalex
property float scaley
property float centerx
property float centery
property int viewportx
property int viewporty
property float k1
property float k2
end_header
0.52600002 1.926 -0.149
0.52600002 1.925 -0.147
0.52600002 1.925 -0.14300001
0.53200001 1.932 -0.15700001
0.53100002 1.9299999 -0.155
0.53100002 1.929 -0.153
0.52999997 1.927 -0.15099999
0.52999997 1.925 -0.149
0.53500003 1.932 -0.15700001
0.53399998 1.9299999 -0.155
0.53399998 1.927 -0.153
0.53299999 1.925 -0.15099999
0.53200001 1.923 -0.148
0.59200001 2.1240001 -0.19
0.59299999 2.125 -0.18799999
0.537 1.927 -0.153
0.53600001 1.924 -0.15000001
0.53500003 1.9220001 -0.148
0.597 2.1270001 -0.191
0.597 2.1289999 -0.18799999
0.597 2.1259999 -0.186
0.59500003 2.1199999 -0.183
0.54000002 1.928 -0.153
0.54000002 1.925 -0.15099999
0.53899997 1.923 -0.149
0.60100001 2.1300001 -0.191
0.602 2.132 -0.189
0.602 2.132 -0.18700001
0.60100001 2.1300001 -0.184
0.54500002 1.9299999 -0.153
0.54299998 1.925 -0.15099999
0.542 1.9220001 -0.149
0.60500002 2.132 -0.191
0.60600001 2.1340001 -0.189
0.60600001 2.135 -0.18700001
0.60600001 2.1340001 -0.185
0.55900002 1.97 -0.169
0.54500002 1.9220001 -0.149
0.60900003 2.132 -0.191
0.61000001 2.1359999 -0.189
0.61000001 2.1370001 -0.18700001
0.61000001 2.1370001 -0.185
0.60900003 2.1329999 -0.182
0.60699999 2.125 -0.18000001
0.54900002 1.923 -0.149
0.54799998 1.921 -0.147
0.54799998 1.92 -0.145
0.54799998 1.92 -0.14300001
0.61299998 2.1329999 -0.191
0.61400002 2.1370001 -0.19
0.61500001 2.1389999 -0.18799999
0.61500001 2.1400001 -0.185
0.61400002 2.138 -0.183
0.61299998 2.1359999 -0.18099999
0.55299997 1.926 -0.149
0.55199999 1.924 -0.147
0.55199999 1.923 -0.145
0.55199999 1.923 -0.14300001
0.55199999 1.924 -0.141
0.55299997 1.926 -0.139
0.61699998 2.135 -0.192
0.61799997 2.138 -0.19
0.61900002 2.141 -0.18799999
0.61900002 2.142 -0.186
0.61900002 2.141 -0.184
0.61799997 2.1389999 -0.18099999
0.57800001 2.0020001 -0.16
0.565 1.957 -0.154
0.55800003 1.932 -0.15000001
0.55599999 1.927 -0.147
0.55599999 1.926 -0.145
0.55599999 1.928 -0.14300001
0.55699998 1.929 -0.141
0.55699998 1.928 -0.139
0.62 2.1340001 -0.191
0.62199998 2.138 -0.19
0.62300003 2.142 -0.18799999
0.62300003 2.1440001 -0.186
0.62300003 2.145 -0.184
0.62300003 2.1440001 -0.18099999
0.60699999 2.089 -0.17399999
0.57499999 1.977 -0.163
0.56900001 1.956 -0.15899999
0.57499999 1.979 -0.155
0.565 1.946 -0.15099999
0.56199998 1.9349999 -0.148
0.56099999 1.931 -0.146
0.56199998 1.9349999 -0.14399999
0.56199998 1.9349999 -0.142
0.56099999 1.932 -0.14
0.62400001 2.132 -0.191
0.625 2.1370001 -0.19
0.62599999 2.141 -0.18799999
0.62800002 2.145 -0.186
0.62800002 2.1470001 -0.184
0.62800002 2.148 -0.182
0.62800002 2.1459999 -0.17900001
0.62599999 2.142 -0.177
0.62400001 2.1329999 -0.17399999
0.62 2.119 -0.171
0.56599998 1.938 -0.146
0.56699997 1.941 -0.145
0.56699997 1.9400001 -0.14300001
0.565 1.934 -0.14
0.62199998 2.115 -0.19
0.62599999 2.128 -0.189
0.62900001 2.138 -0.18799999
0.63099998 2.145 -0.186
0.63200003 2.148 -0.184
0.63200003 2.148 -0.182
0.63200003 2.148 -0.18000001
0.63099998 2.1459999 -0.177
0.63 2.1429999 -0.175
0.62900001 2.1389999 -0.17200001
0.57099998 1.942 -0.14300001
0.56900001 1.937 -0.14
0.61900002 2.0910001 -0.18799999
0.62599999 2.1129999 -0.18799999
0.63 2.1300001 -0.18700001
0.634 2.142 -0.186
0.63599998 2.148 -0.184
0.63599998 2.148 -0.182
0.63599998 2.1489999 -0.18000001
0.63599998 2.148 -0.177
0.63499999 2.1459999 -0.175
0.634 2.142 -0.17200001
0.57499999 1.943 -0.14300001
0.574 1.942 -0.14
0.60100001 2.02 -0.182
0.57700002 1.9400001 -0.17200001
0.57200003 1.9220001 -0.167
0.58999997 1.985 -0.17
0.62300003 2.095 -0.177
0.639 2.1500001 -0.18000001
0.639 2.1489999 -0.178
0.639 2.1459999 -0.176
0.63700002 2.141 -0.17200001
0.579 1.946 -0.14300001
0.57999998 1.952 -0.141
0.56900001 1.913 -0.13600001
0.62800002 2.1140001 -0.142
0.63499999 2.1359999 -0.141
0.64300001 2.148 -0.18000001
0.64300001 2.1489999 -0.178
0.64300001 2.1459999 -0.176
0.64099997 2.141 -0.17200001
0.59200001 1.978 -0.155
0.58200002 1.946 -0.14300001
0.58700001 1.964 -0.142
0.63800001 2.1329999 -0.14300001
0.64300001 2.1489999 -0.142
0.59399998 1.972 -0.13500001
0.64399999 2.1389999 -0.14399999
0.64700001 2.152 -0.14300001
0.64899999 2.1600001 -0.141
0.65100002 2.1630001 -0.139
0.64600003 2.1359999 -0.148
0.648 2.141 -0.146
0.64999998 2.1470001 -0.145
0.65200001 2.155 -0.14300001
0.65399998 2.161 -0.141
0.65399998 2.1630001 -0.139
0.65499997 2.1659999 -0.13699999
0.65600002 2.1689999 -0.13500001
0.65600002 2.1700001 -0.133
0.65499997 2.168 -0.13
0.61000001 2.003 -0.18000001
0.611 2.0050001 -0.178
0.653 2.145 -0.149
0.65399998 2.1489999 -0.147
0.65600002 2.155 -0.145
0.65700001 2.161 -0.14300001
0.65899998 2.164 -0.141
0.65899998 2.1659999 -0.139
0.66000003 2.168 -0.13699999
0.66000003 2.1700001 -0.13500001
0.66000003 2.1700001 -0.133
0.66000003 2.1689999 -0.13
0.66000003 2.1689999 -0.12800001
0.66100001 2.171 -0.126
0.61000001 1.992 -0.17900001
0.61000001 1.992 -0.177
0.61199999 1.998 -0.176
0.61699998 2.0120001 -0.175
0.60799998 1.988 -0.138
0.66000003 2.1589999 -0.145
0.662 2.164 -0.14399999
0.66399997 2.168 -0.142
0.66399997 2.1700001 -0.139
0.66500002 2.1719999 -0.13699999
0.66500002 2.175 -0.13500001
0.66500002 2.1760001 -0.133
0.66500002 2.175 -0.131
0.66600001 2.1760001 -0.12899999
0.66600001 2.177 -0.126
0.66600001 2.178 -0.124
0.66600001 2.1789999 -0.122
0.667 2.1800001 -0.12
0.667 2.181 -0.118
0.61199999 1.987 -0.17900001
0.61199999 1.987 -0.177
0.61299998 1.992 -0.175
0.61699998 2.0020001 -0.17399999
0.66399997 2.1589999 -0.146
0.66600001 2.164 -0.14399999
0.667 2.168 -0.142
0.66799998 2.1700001 -0.14
0.66900003 2.1730001 -0.138
0.66900003 2.174 -0.13500001
0.66900003 2.175 -0.133
0.66900003 2.174 -0.131
0.66900003 2.174 -0.12899999
0.66900003 2.174 -0.126
0.66900003 2.175 -0.124
0.66900003 2.175 -0.122
0.66900003 2.175 -0.12
0.66900003 2.175 -0.117
0.61500001 1.985 -0.17900001
0.61500001 1.985 -0.177
0.616 1.988 -0.175
0.61799997 1.995 -0.17399999
0.66799998 2.1559999 -0.145
0.66900003 2.161 -0.14399999
0.67000002 2.1659999 -0.142
0.671 2.1689999 -0.14
0.67199999 2.1719999 -0.138
0.67299998 2.1730001 -0.13500001
0.67299998 2.175 -0.133
0.67299998 2.175 -0.131
0.67299998 2.175 -0.12899999
0.67299998 2.175 -0.126
0.67299998 2.175 -0.124
0.67299998 2.175 -0.122
0.67299998 2.174 -0.12
0.67299998 2.174 -0.117
0.67199999 2.1719999 -0.115
0.671 2.1689999 -0.113
0.61799997 1.983 -0.17900001
0.61799997 1.982 -0.177
0.61799997 1.984 -0.175
0.61900002 1.987 -0.17299999
0.67500001 2.171 -0.138
0.676 2.1730001 -0.13500001
0.67699999 2.175 -0.133
0.67699999 2.1760001 -0.131
0.67799997 2.177 -0.12899999
0.67799997 2.177 -0.127
0.67699999 2.1760001 -0.124
0.67699999 2.1760001 -0.122
0.67699999 2.175 -0.12
0.676 2.1730001 -0.117
0.676 2.171 -0.115
0.67500001 2.1689999 -0.113
0.62099999 1.9809999 -0.17900001
0.62 1.98 -0.176
0.62 1.979 -0.17399999
0.62099999 1.9809999 -0.17299999
0.68099999 2.175 -0.133
0.68099999 2.177 -0.131
0.68199998 2.178 -0.12899999
0.68199998 2.177 -0.127
0.68199998 2.177 -0.125
0.68199998 2.177 -0.122
0.68099999 2.1760001 -0.12
0.68000001 2.174 -0.117
0.67900002 2.1719999 -0.115
0.67900002 2.1689999 -0.113
0.62300003 1.978 -0.17900001
0.62300003 1.977 -0.176
0.62300003 1.976 -0.17399999
0.62300003 1.977 -0.17200001
0.62400001 1.98 -0.17
0.625 1.984 -0.169
0.66799998 2.1210001 -0.12800001
0.685 2.177 -0.12899999
0.685 2.177 -0.127
0.685 2.178 -0.125
0.685 2.178 -0.122
0.685 2.177 -0.12
0.685 2.175 -0.118
0.68400002 2.1730001 -0.116
0.68199998 2.1689999 -0.113
0.62699997 1.978 -0.17900001
0.62599999 1.976 -0.176
0.62599999 1.975 -0.17399999
0.62599999 1.975 -0.17200001
0.62599999 1.977 -0.17
0.62699997 1.98 -0.168
0.68699998 2.171 -0.12899999
0.68699998 2.1730001 -0.126
0.68800002 2.174 -0.124
0.68800002 2.174 -0.122
0.68800002 2.1730001 -0.12
0.68800002 2.1730001 -0.117
0.68699998 2.171 -0.115
0.685 2.1670001 -0.113
0.62900001 1.973 -0.178
0.62800002 1.972 -0.176
0.62800002 1.971 -0.17399999
0.62800002 1.971 -0.17200001
0.62800002 1.971 -0.17
0.62900001 1.973 -0.168
0.69199997 2.177 -0.093999997
0.69300002 2.1789999 -0.090999998
0.69400001 2.181 -0.089000002
0.69400001 2.1830001 -0.086999997
0.63099998 1.969 -0.178
0.63 1.967 -0.176
0.63 1.966 -0.17399999
0.63 1.966 -0.17200001
0.63 1.966 -0.17
0.63 1.966 -0.168
0.616 1.924 -0.154
0.61400002 1.916 -0.15099999
0.69700003 2.1789999 -0.097999997
0.69700003 2.1800001 -0.096000001
0.69700003 2.181 -0.093999997
0.69800001 2.1830001 -0.090999998
0.69800001 2.184 -0.089000002
0.69800001 2.1849999 -0.086999997
0.69800001 2.1849999 -0.085000001
0.69800001 2.184 -0.082000002
0.69800001 2.184 -0.079999998
0.69800001 2.1849999 -0.078000002
0.634 1.9680001 -0.178
0.63300002 1.964 -0.175
0.63200003 1.962 -0.17299999
0.63200003 1.962 -0.171
0.63200003 1.962 -0.169
0.63200003 1.961 -0.167
0.63200003 1.96 -0.16500001
0.63099998 1.9579999 -0.163
0.62800002 1.948 -0.16
0.62199998 1.931 -0.156
0.61799997 1.919 -0.154
0.616 1.913 -0.15099999
0.616 1.911 -0.149
0.61699998 1.915 -0.148
0.70200002 2.1819999 -0.097999997
0.70200002 2.1819999 -0.096000001
0.70200002 2.1830001 -0.093999997
0.70200002 2.184 -0.090999998
0.70200002 2.1849999 -0.089000002
0.70200002 2.1849999 -0.086999997
0.70200002 2.1849999 -0.085000001
0.70200002 2.1849999 -0.082000002
0.70200002 2.1849999 -0.079999998
0.70300001 2.187 -0.078000002
0.70300001 2.187 -0.075999998
0.70300001 2.1860001 -0.072999999
0.63800001 1.969 -0.178
0.63599998 1.964 -0.175
0.63499999 1.96 -0.17299999
0.63499999 1.959 -0.171
0.634 1.959 -0.169
0.634 1.9579999 -0.167
0.634 1.956 -0.16500001
0.63200003 1.952 -0.162
0.62900001 1.942 -0.15899999
0.62300003 1.925 -0.156
0.62 1.914 -0.153
0.61799997 1.909 -0.15099999
0.61799997 1.908 -0.149
0.61799997 1.91 -0.147
0.62 1.916 -0.145
0.62400001 1.928 -0.14399999
0.63599998 1.965 -0.145
0.65499997 2.026 -0.148
0.70599997 2.1830001 -0.093999997
0.70599997 2.184 -0.090999998
0.70599997 2.1849999 -0.089000002
0.70599997 2.184 -0.086999997
0.70599997 2.184 -0.085000001
0.70599997 2.184 -0.082000002
0.70599997 2.184 -0.079999998
0.70599997 2.1849999 -0.078000002
0.70599997 2.1860001 -0.075999998
0.70599997 2.1849999 -0.072999999
0.70599997 2.184 -0.071000002
0.70499998 2.1819999 -0.068999998
0.64200002 1.97 -0.178
0.63999999 1.964 -0.175
0.63800001 1.96 -0.17299999
0.63800001 1.959 -0.171
0.63700002 1.957 -0.169
0.63700002 1.955 -0.167
0.63599998 1.9529999 -0.16500001
0.634 1.949 -0.162
0.63099998 1.9400001 -0.15899999
0.62599999 1.924 -0.156
0.62300003 1.914 -0.153
0.62199998 1.911 -0.15099999
0.62199998 1.91 -0.149
0.62300003 1.913 -0.147
0.62400001 1.918 -0.145
0.62699997 1.925 -0.14399999
0.63800001 1.959 -0.14399999
0.65700001 2.02 -0.147
0.70999998 2.1830001 -0.093999997
0.70999998 2.184 -0.090999998
0.70999998 2.184 -0.089000002
0.70999998 2.184 -0.086999997
0.70999998 2.184 -0.085000001
0.70999998 2.1830001 -0.082000002
0.70999998 2.184 -0.079999998
0.70999998 2.1849999 -0.078000002
0.70999998 2.1849999 -0.075999998
0.70999998 2.1849999 -0.072999999
0.70899999 2.184 -0.071000002
0.70899999 2.1830001 -0.068999998
0.64600003 1.972 -0.178
0.64399999 1.966 -0.176
0.64200002 1.961 -0.17399999
0.64099997 1.957 -0.171
0.63999999 1.954 -0.169
0.639 1.952 -0.16599999
0.63800001 1.949 -0.164
0.63599998 1.944 -0.162
0.63300002 1.9349999 -0.15899999
0.62800002 1.921 -0.156
0.62599999 1.913 -0.153
0.62599999 1.911 -0.15099999
0.62599999 1.9119999 -0.149
0.62699997 1.916 -0.148
0.62900001 1.9220001 -0.146
0.63200003 1.931 -0.14399999
0.64200002 1.9630001 -0.145
0.66000003 2.0179999 -0.147
0.71499997 2.187 -0.090000004
0.71399999 2.1849999 -0.086999997
0.71399999 2.1849999 -0.085000001
0.71399999 2.184 -0.082000002
0.71399999 2.184 -0.079999998
0.71399999 2.184 -0.078000002
0.71399999 2.184 -0.075999998
0.71399999 2.184 -0.072999999
0.713 2.1819999 -0.071000002
0.71200001 2.1800001 -0.068999998
0.64999998 1.976 -0.17900001
0.648 1.97 -0.176
0.64700001 1.964 -0.17399999
0.64499998 1.96 -0.171
0.64399999 1.955 -0.169
0.64200002 1.951 -0.16599999
0.64099997 1.947 -0.164
0.639 1.941 -0.161
0.63599998 1.932 -0.15800001
0.63099998 1.919 -0.156
0.62900001 1.9119999 -0.153
0.62900001 1.9119999 -0.15099999
0.63 1.914 -0.149
0.63099998 1.918 -0.148
0.634 1.927 -0.146
0.639 1.941 -0.146
0.64600003 1.966 -0.145
0.65799999 2 -0.146
0.66600001 2.026 -0.146
0.71600002 2.1819999 -0.022
0.71600002 2.1800001 -0.018999999
0.71600002 2.1800001 -0.017000001
0.71700001 2.1819999 -0.015
0.71700001 2.184 -0.013
0.71700001 2.1849999 -0.011
0.71799999 2.1860001 -0.0089999996
0.71799999 2.1860001 -0.0060000001
0.71799999 2.1860001 -0.0040000002
0.71799999 2.1849999 -0.0020000001
0.71700001 2.184 0
0.71700001 2.1830001 0.003
0.70099998 2.132 0.083999999
0.70099998 2.1340001 0.086000003
0.70099998 2.1340001 0.088
0.70099998 2.135 0.090999998
0.699 2.1259999 0.101
0.69700003 2.1210001 0.103
0.65600002 1.9809999 -0.17900001
0.65399998 1.974 -0.177
0.65200001 1.9680001 -0.17399999
0.64999998 1.9630001 -0.171
0.648 1.957 -0.169
0.64600003 1.952 -0.16599999
0.64399999 1.9450001 -0.164
0.64200002 1.939 -0.161
0.639 1.9299999 -0.15800001
0.63499999 1.918 -0.156
0.63200003 1.913 -0.153
0.63200003 1.913 -0.15099999
0.63300002 1.915 -0.149
0.63499999 1.919 -0.148
0.639 1.9299999 -0.147
0.64499998 1.949 -0.146
0.72100002 2.1830001 -0.035
0.72000003 2.1819999 -0.033
0.72000003 2.1819999 -0.030999999
0.72100002 2.1830001 -0.028000001
0.72100002 2.184 -0.026000001
0.72100002 2.1849999 -0.024
0.72100002 2.184 -0.022
0.72100002 2.1830001 -0.018999999
0.72100002 2.1830001 -0.017000001
0.72100002 2.184 -0.015
0.72100002 2.1849999 -0.013
0.72100002 2.1849999 -0.011
0.72100002 2.1849999 -0.0089999996
0.72100002 2.1860001 -0.0060000001
0.72100002 2.1849999 -0.0040000002
0.72100002 2.1849999 -0.0020000001
0.72100002 2.184 0
0.72100002 2.184 0.003
0.72100002 2.1819999 0.0049999999
0.71899998 2.1789999 0.0070000002
0.70599997 2.1389999 0.079999998
0.70700002 2.141 0.082000002
0.70700002 2.141 0.083999999
0.70700002 2.1389999 0.086000003
0.70599997 2.1370001 0.088
0.70599997 2.1359999 0.090999998
0.70499998 2.135 0.093000002
0.70499998 2.1340001 0.094999999
0.704 2.131 0.097000003
0.70200002 2.125 0.098999999
0.69999999 2.1199999 0.101
0.69800001 2.1140001 0.103
0.662 1.987 -0.18000001
0.65799999 1.978 -0.177
0.65499997 1.97 -0.175
0.653 1.964 -0.17200001
0.65100002 1.9579999 -0.169
0.64899999 1.951 -0.16599999
0.64700001 1.944 -0.164
0.64399999 1.936 -0.161
0.64099997 1.928 -0.15899999
0.63800001 1.919 -0.156
0.63700002 1.915 -0.153
0.63700002 1.915 -0.152
0.63700002 1.9170001 -0.15000001
0.639 1.921 -0.148
0.64300001 1.932 -0.147
0.64899999 1.95 -0.146
0.72399998 2.181 -0.030999999
0.72399998 2.1830001 -0.028999999
0.72500002 2.184 -0.027000001
0.72500002 2.184 -0.024
0.72399998 2.184 -0.022
0.72399998 2.1830001 -0.02
0.72399998 2.1830001 -0.017999999
0.72399998 2.184 -0.015
0.72399998 2.184 -0.013
0.72399998 2.184 -0.011
0.72500002 2.184 -0.0089999996
0.72500002 2.1849999 -0.0060000001
0.72500002 2.184 -0.0040000002
0.72500002 2.1830001 -0.0020000001
0.72399998 2.1830001 0
0.72399998 2.1819999 0.003
0.72399998 2.181 0.0049999999
0.72299999 2.178 0.0070000002
0.722 2.177 0.0089999996
0.722 2.175 0.012
0.72100002 2.1730001 0.014
0.71899998 2.168 0.016000001
0.71100003 2.142 0.075000003
0.71200001 2.1440001 0.078000002
0.71200001 2.145 0.079999998
0.71200001 2.1440001 0.082000002
0.71100003 2.141 0.083999999
0.70999998 2.1370001 0.086000003
0.70899999 2.135 0.088
0.70899999 2.135 0.090999998
0.708 2.1329999 0.093000002
0.70700002 2.1289999 0.094999999
0.66399997 1.984 -0.18000001
0.66100001 1.977 -0.177
0.65899998 1.971 -0.175
0.65700001 1.966 -0.17200001
0.65499997 1.959 -0.169
0.65200001 1.95 -0.16599999
0.64999998 1.942 -0.164
0.648 1.9349999 -0.161
0.64499998 1.928 -0.15899999
0.64200002 1.921 -0.156
0.64099997 1.9170001 -0.154
0.64099997 1.9170001 -0.152
0.64200002 1.921 -0.15000001
0.64399999 1.926 -0.149
0.648 1.938 -0.147
0.65399998 1.956 -0.146
0.72799999 2.181 -0.030999999
0.72899997 2.1830001 -0.028999999
0.72899997 2.1849999 -0.027000001
0.72899997 2.184 -0.024
0.72799999 2.184 -0.022
0.72799999 2.184 -0.02
0.72799999 2.184 -0.017999999
0.72799999 2.1830001 -0.015
0.72799999 2.1830001 -0.013
0.72799999 2.1819999 -0.011
0.72899997 2.1819999 -0.0089999996
0.72899997 2.1830001 -0.0060000001
0.72799999 2.1819999 -0.0040000002
0.72799999 2.181 -0.0020000001
0.72799999 2.181 0
0.72799999 2.1819999 0.003
0.72799999 2.181 0.0049999999
0.727 2.1789999 0.0070000002
0.72600001 2.177 0.0089999996
0.72600001 2.175 0.012
0.72500002 2.1730001 0.014
0.72399998 2.1700001 0.016000001
0.71499997 2.142 0.075000003
0.71499997 2.142 0.078000002
0.71499997 2.141 0.079999998
0.71499997 2.1400001 0.082000002
0.71399999 2.1370001 0.083999999
0.71200001 2.1329999 0.086000003
0.71100003 2.1289999 0.088
0.70999998 2.125 0.090000004
0.708 2.1210001 0.092
0.70599997 2.115 0.093999997
0.66799998 1.9859999 -0.18000001
0.66500002 1.978 -0.177
0.66299999 1.972 -0.175
0.66100001 1.9680001 -0.17200001
0.65899998 1.96 -0.17
0.65499997 1.95 -0.16599999
0.653 1.941 -0.164
0.64999998 1.934 -0.161
0.648 1.926 -0.15899999
0.64499998 1.92 -0.156
0.64399999 1.916 -0.154
0.64399999 1.9170001 -0.152
0.64499998 1.919 -0.15000001
0.64700001 1.925 -0.149
0.65100002 1.936 -0.148
0.65600002 1.9529999 -0.146
0.73299998 2.184 -0.027000001
0.73299998 2.1849999 -0.024
0.73299998 2.1849999 -0.022
0.73299998 2.184 -0.02
0.73199999 2.1830001 -0.017999999
0.73199999 2.1830001 -0.015
0.73199999 2.1830001 -0.013
0.73199999 2.1830001 -0.011
0.73199999 2.1819999 -0.0089999996
0.73199999 2.1819999 -0.0060000001
0.73199999 2.181 -0.0040000002
0.73199999 2.1800001 -0.0020000001
0.73199999 2.1800001 0
0.73199999 2.181 0.003
0.73100001 2.1800001 0.0049999999
0.73100001 2.1789999 0.0070000002
0.73000002 2.177 0.0089999996
0.73000002 2.1760001 0.012
0.72899997 2.1730001 0.014
0.72799999 2.171 0.016000001
0.71700001 2.138 0.071000002
0.71700001 2.138 0.072999999
0.71700001 2.138 0.075000003
0.71700001 2.1359999 0.078000002
0.71600002 2.135 0.079999998
0.71600002 2.1329999 0.082000002
0.71499997 2.1300001 0.083999999
0.713 2.125 0.086000003
0.67199999 1.987 -0.18000001
0.66900003 1.979 -0.178
0.667 1.973 -0.175
0.66500002 1.9680001 -0.17200001
0.66299999 1.961 -0.17
0.66000003 1.952 -0.167
0.65600002 1.943 -0.164
0.65399998 1.933 -0.161
0.65100002 1.925 -0.15899999
0.648 1.918 -0.156
0.64700001 1.915 -0.154
0.64700001 1.915 -0.152
0.648 1.918 -0.15000001
0.64999998 1.923 -0.149
0.65399998 1.934 -0.148
0.65899998 1.952 -0.146
0.736 2.1830001 -0.0089999996
0.736 2.1819999 -0.0060000001
0.736 2.181 -0.0040000002
0.73500001 2.1800001 -0.0020000001
0.73500001 2.1800001 0
0.73500001 2.1800001 0.003
0.73500001 2.1800001 0.0049999999
0.73500001 2.1789999 0.0070000002
0.73400003 2.178 0.0089999996
0.73400003 2.1760001 0.012
0.73299998 2.174 0.014
0.73199999 2.171 0.016000001
0.67500001 1.987 -0.18000001
0.67299998 1.979 -0.178
0.671 1.974 -0.175
0.66900003 1.97 -0.17200001
0.667 1.9630001 -0.17
0.66399997 1.954 -0.167
0.66000003 1.944 -0.164
0.65700001 1.934 -0.161
0.65399998 1.925 -0.15899999
0.65200001 1.918 -0.156
0.64999998 1.914 -0.154
0.64999998 1.914 -0.152
0.65100002 1.9170001 -0.15000001
0.653 1.923 -0.149
0.65700001 1.934 -0.148
0.662 1.95 -0.146
0.67900002 1.987 -0.18000001
0.67699999 1.98 -0.178
0.67500001 1.976 -0.175
0.67400002 1.973 -0.17299999
0.671 1.966 -0.17
0.667 1.9529999 -0.167
0.66399997 1.943 -0.164
0.66000003 1.934 -0.161
0.65799999 1.926 -0.15899999
0.65499997 1.919 -0.156
0.65399998 1.915 -0.154
0.65399998 1.915 -0.152
0.65399998 1.918 -0.15000001
0.65600002 1.923 -0.149
0.66000003 1.933 -0.148
0.66500002 1.948 -0.146
0.671 1.9680001 -0.146
0.68000001 1.992 -0.145
0.685 2.006 -0.14399999
0.68599999 2.0109999 -0.14300001
0.68400002 2.0020001 -0.14
0.676 1.98 -0.13600001
0.68199998 1.987 -0.18000001
0.68000001 1.98 -0.178
0.67799997 1.974 -0.175
0.67699999 1.971 -0.17200001
0.67500001 1.964 -0.17
0.671 1.9529999 -0.167
0.667 1.943 -0.164
0.66500002 1.936 -0.161
0.662 1.928 -0.15899999
0.65899998 1.92 -0.156
0.65799999 1.916 -0.154
0.65799999 1.915 -0.152
0.65799999 1.9170001 -0.15000001
0.66000003 1.9220001 -0.149
0.66299999 1.931 -0.148
0.66799998 1.946 -0.146
0.67299998 1.961 -0.146
0.67900002 1.977 -0.145
0.68199998 1.9859999 -0.14300001
0.68199998 1.989 -0.141
0.67799997 1.976 -0.138
0.66799998 1.948 -0.134
0.68099999 1.975 -0.175
0.68099999 1.973 -0.17299999
0.67900002 1.967 -0.17
0.676 1.9579999 -0.167
0.67199999 1.948 -0.16500001
0.66900003 1.939 -0.162
0.66600001 1.9299999 -0.15899999
0.662 1.921 -0.156
0.66100001 1.915 -0.154
0.66000003 1.914 -0.152
0.66100001 1.915 -0.15000001
0.662 1.919 -0.148
0.66500002 1.927 -0.147
0.66900003 1.9400001 -0.146
0.67299998 1.951 -0.145
0.676 1.96 -0.14300001
0.67799997 1.967 -0.142
0.68000001 1.972 -0.14
0.676 1.96 -0.13699999
0.66600001 1.9299999 -0.133
0.65799999 1.9069999 -0.13
0.65200001 1.89 -0.127
0.685 1.974 -0.175
0.68400002 1.972 -0.17299999
0.68199998 1.966 -0.17
0.67900002 1.9579999 -0.167
0.676 1.95 -0.16500001
0.67400002 1.942 -0.162
0.671 1.934 -0.16
0.667 1.924 -0.15700001
0.66500002 1.918 -0.154
0.66399997 1.916 -0.152
0.66399997 1.916 -0.15000001
0.66600001 1.92 -0.148
0.66799998 1.926 -0.147
0.67199999 1.937 -0.146
0.67400002 1.943 -0.14399999
0.67400002 1.9450001 -0.142
0.67500001 1.947 -0.14
0.676 1.95 -0.138
0.67199999 1.938 -0.13600001
0.66299999 1.9119999 -0.132
0.65600002 1.892 -0.12899999
0.685 1.964 -0.17
0.68199998 1.957 -0.168
0.68000001 1.951 -0.16500001
0.67799997 1.9450001 -0.162
0.676 1.938 -0.16
0.67299998 1.929 -0.15700001
0.671 1.923 -0.155
0.66900003 1.92 -0.152
0.66900003 1.92 -0.15000001
0.67000002 1.9220001 -0.149
0.67199999 1.927 -0.147
0.67400002 1.934 -0.146
0.67500001 1.936 -0.14300001
0.67299998 1.931 -0.141
0.67199999 1.929 -0.139
0.67199999 1.929 -0.13699999
0.66900003 1.919 -0.134
0.662 1.898 -0.131
0.67000002 1.91 -0.164
0.685 1.9529999 -0.16500001
0.68199998 1.946 -0.162
0.68000001 1.939 -0.16
0.67799997 1.933 -0.15700001
0.676 1.928 -0.155
0.67400002 1.924 -0.153
0.67400002 1.923 -0.15099999
0.67400002 1.924 -0.149
0.67500001 1.926 -0.147
0.676 1.9299999 -0.145
0.67500001 1.928 -0.14300001
0.67199999 1.919 -0.14
0.671 1.9170001 -0.138
0.67199999 1.92 -0.13699999
0.67000002 1.9119999 -0.134
0.66299999 1.893 -0.131
0.68699998 1.95 -0.16500001
0.685 1.9450001 -0.162
0.68400002 1.9400001 -0.16
0.68199998 1.9349999 -0.15800001
0.68000001 1.931 -0.156
0.67900002 1.927 -0.153
0.67799997 1.924 -0.15099999
0.67699999 1.9220001 -0.149
0.67699999 1.921 -0.147
0.676 1.921 -0.145
0.67500001 1.9170001 -0.14300001
0.67199999 1.9069999 -0.14
0.67000002 1.904 -0.13699999
0.671 1.906 -0.13600001
0.66799998 1.899 -0.133
0.66399997 1.886 0.092
0.68699998 1.9400001 -0.161
0.685 1.9349999 -0.15800001
0.68300003 1.931 -0.156
0.68199998 1.927 -0.153
0.68099999 1.923 -0.15099999
0.68000001 1.92 -0.148
0.67799997 1.916 -0.146
0.67699999 1.913 -0.14399999
0.67500001 1.908 -0.142
0.67199999 1.899 -0.139
0.67000002 1.895 -0.13699999
0.67000002 1.893 -0.13500001
0.66799998 1.888 -0.132
0.66600001 1.8839999 0.090000004
0.66799998 1.888 0.092
0.69 1.9400001 -0.161
0.68800002 1.936 -0.15800001
0.68699998 1.931 -0.156
0.68599999 1.927 -0.153
0.68400002 1.9220001 -0.15099999
0.68199998 1.9170001 -0.148
0.68000001 1.9119999 -0.146
0.67900002 1.908 -0.14399999
0.67699999 1.902 -0.141
0.67400002 1.8940001 -0.139
0.67199999 1.8890001 -0.13600001
0.671 1.885 -0.134
0.66900003 1.881 -0.132
0.66900003 1.8839999 0.078000002
0.67000002 1.885 0.090000004
0.67199999 1.89 0.092
0.699 1.944 -0.178
0.69 1.9299999 -0.156
0.68800002 1.925 -0.153
0.68599999 1.919 -0.15099999
0.68400002 1.9119999 -0.148
0.68099999 1.9069999 -0.146
0.68000001 1.902 -0.14300001
0.67799997 1.896 -0.141
0.676 1.89 -0.138
0.67400002 1.885 -0.13600001
0.67299998 1.881 -0.134
0.67199999 1.883 0.088
0.67400002 1.887 0.090000004
0.676 1.892 0.093000002
0.69099998 1.924 -0.155
0.69 1.92 -0.153
0.68800002 1.914 -0.15000001
0.685 1.906 -0.147
0.68199998 1.899 -0.145
0.68000001 1.8940001 -0.14300001
0.67799997 1.8890001 -0.141
0.67699999 1.8839999 -0.138
0.676 1.881 -0.13600001
0.67500001 1.8789999 -0.134
0.67500001 1.8789999 -0.132
0.676 1.882 -0.13
0.67699999 1.885 -0.12800001
0.67699999 1.887 -0.127
0.676 1.882 0.086000003
0.676 1.885 0.088
0.67799997 1.89 0.090000004
0.68099999 1.896 0.093000002
0.69300002 1.918 -0.155
0.69099998 1.913 -0.152
0.68900001 1.908 -0.15000001
0.68699998 1.902 -0.147
0.68400002 1.895 -0.145
0.68099999 1.888 -0.142
0.67900002 1.882 -0.14
0.67799997 1.878 -0.138
0.67900002 1.881 -0.132
0.68099999 1.887 -0.131
0.68300003 1.891 -0.12899999
0.68300003 1.893 -0.127
0.67799997 1.88 0.082000002
0.67799997 1.881 0.083999999
0.68000001 1.8839999 0.086000003
0.68099999 1.8890001 0.089000002
0.68400002 1.895 0.090999998
0.68699998 1.903 0.093000002
0.69300002 1.909 -0.154
0.69099998 1.904 -0.152
0.68900001 1.898 -0.149
0.68599999 1.892 -0.147
0.68400002 1.886 -0.14399999
0.68199998 1.881 -0.142
0.68099999 1.876 -0.14
0.68099999 1.877 -0.134
0.68300003 1.882 -0.132
0.685 1.888 -0.131
0.68699998 1.895 -0.12899999
0.69 1.902 -0.12800001
0.68099999 1.88 0.082000002
0.68199998 1.882 0.083999999
0.68400002 1.886 0.086000003
0.68599999 1.892 0.089000002
0.68900001 1.9 0.090999998
0.69300002 1.91 0.093999997
0.69300002 1.899 -0.153
0.69099998 1.895 -0.15099999
0.68900001 1.89 -0.148
0.68699998 1.8839999 -0.146
0.685 1.8789999 -0.14399999
0.68400002 1.875 -0.142
0.68400002 1.875 -0.134
0.68599999 1.881 -0.132
0.68900001 1.8890001 -0.131
0.69199997 1.898 -0.12899999
0.69700003 1.91 -0.12800001
0.70099998 1.923 -0.127
0.70599997 1.936 -0.126
0.70700002 1.9400001 -0.124
0.70599997 1.936 -0.122
0.69999999 1.92 -0.119
0.69 1.8940001 -0.115
0.685 1.8789999 0.079999998
0.68599999 1.882 0.082000002
0.68599999 1.8839999 0.083999999
0.68800002 1.8890001 0.086999997
0.69 1.895 0.089000002
0.69300002 1.903 0.090999998
0.69700003 1.913 0.093999997
0.69199997 1.888 -0.153
0.69099998 1.886 -0.15000001
0.69 1.882 -0.148
0.68800002 1.878 -0.146
0.68699998 1.874 -0.14399999
0.68900001 1.8789999 -0.132
0.69199997 1.888 -0.131
0.69599998 1.9 -0.13
0.70200002 1.915 -0.12800001
0.70599997 1.928 -0.127
0.70999998 1.938 -0.126
0.71100003 1.9400001 -0.124
0.708 1.933 -0.122
0.70200002 1.916 -0.119
0.69199997 1.8890001 -0.115
0.68699998 1.877 0.075999998
0.68800002 1.8789999 0.078000002
0.68900001 1.882 0.079999998
0.69 1.8839999 0.082000002
0.69099998 1.887 0.085000001
0.69300002 1.892 0.086999997
0.69499999 1.898 0.089000002
0.69700003 1.905 0.090999998
0.70099998 1.914 0.093999997
0.69199997 1.878 -0.152
0.69199997 1.877 -0.15000001
0.69099998 1.876 -0.148
0.69099998 1.875 -0.146
0.69 1.873 -0.14399999
0.69099998 1.877 -0.132
0.69400001 1.885 -0.131
0.69800001 1.897 -0.12899999
0.70499998 1.914 -0.12800001
0.70899999 1.927 -0.127
0.71200001 1.9349999 -0.126
0.71200001 1.934 -0.124
0.708 1.924 -0.121
0.70200002 1.908 -0.118
0.69400001 1.885 -0.115
0.69 1.878 0.039999999
0.69199997 1.882 0.063000001
0.69199997 1.883 0.064999998
0.69199997 1.882 0.067000002
0.69 1.877 0.068999998
0.69 1.876 0.071999997
0.69099998 1.877 0.074000001
0.69099998 1.8789999 0.077
0.69199997 1.881 0.079000004
0.69300002 1.8839999 0.081
0.69400001 1.887 0.082999997
0.69599998 1.891 0.085000001
0.69800001 1.895 0.086999997
0.69999999 1.901 0.089000002
0.70200002 1.9069999 0.090999998
0.704 1.913 0.093999997
0.69400001 1.875 -0.152
0.69400001 1.875 -0.15000001
0.69400001 1.875 -0.148
0.69400001 1.876 -0.146
0.69400001 1.876 -0.14399999
0.69400001 1.874 -0.142
0.69300002 1.873 -0.14
0.69300002 1.873 -0.138
0.69400001 1.873 -0.13600001
0.69400001 1.875 -0.134
0.69499999 1.8789999 -0.132
0.69800001 1.886 -0.131
0.69999999 1.893 -0.12899999
0.70300001 1.9 -0.12800001
0.70700002 1.91 -0.127
0.71100003 1.9220001 -0.126
0.71100003 1.9220001 -0.124
0.70599997 1.91 -0.121
0.70099998 1.896 -0.118
0.69599998 1.88 -0.115
0.69400001 1.876 0.063000001
0.69499999 1.88 0.064999998
0.69499999 1.88 0.067000002
0.69300002 1.875 0.068999998
0.69300002 1.875 0.072999999
0.69400001 1.877 0.075000003
0.69499999 1.88 0.077
0.69599998 1.883 0.079000004
0.69700003 1.886 0.081
0.69800001 1.89 0.082999997
0.69999999 1.8940001 0.085000001
0.70200002 1.899 0.086999997
0.704 1.904 0.090000004
0.70599997 1.909 0.092
0.708 1.914 0.093999997
0.69599998 1.8710001 -0.15099999
0.69700003 1.872 -0.15000001
0.69700003 1.874 -0.148
0.69800001 1.876 -0.146
0.699 1.878 -0.14399999
0.699 1.8789999 -0.142
0.699 1.8789999 -0.14
0.69800001 1.878 -0.138
0.69800001 1.877 -0.13600001
0.69800001 1.876 -0.134
0.699 1.878 -0.132
0.69999999 1.883 -0.131
0.70200002 1.888 -0.12899999
0.704 1.893 -0.127
0.70599997 1.899 -0.126
0.70899999 1.908 -0.124
0.71100003 1.913 -0.123
0.71200001 1.914 -0.121
0.708 1.904 -0.118
0.69999999 1.882 -0.115
0.69599998 1.874 0.067000002
0.69599998 1.874 0.072999999
0.69700003 1.877 0.075000003
0.699 1.881 0.077
0.69999999 1.8839999 0.079000004
0.70099998 1.887 0.081
0.70200002 1.891 0.082999997
0.704 1.896 0.085000001
0.70599997 1.901 0.086999997
0.70700002 1.904 0.090000004
0.70899999 1.908 0.092
0.71100003 1.914 0.093999997
0.699 1.869 -0.15099999
0.69999999 1.872 -0.15000001
0.70099998 1.876 -0.148
0.70200002 1.878 -0.146
0.70300001 1.881 -0.14399999
0.704 1.883 -0.142
0.704 1.8839999 -0.14
0.704 1.8839999 -0.138
0.704 1.883 -0.13600001
0.70300001 1.882 -0.134
0.70300001 1.881 -0.133
0.70300001 1.882 -0.131
0.704 1.883 -0.12899999
0.704 1.885 -0.127
0.70499998 1.888 -0.125
0.70700002 1.892 -0.123
0.708 1.896 -0.122
0.70999998 1.902 -0.12
0.708 1.895 -0.118
0.70099998 1.878 -0.114
0.699 1.874 0.072999999
0.70099998 1.877 0.075000003
0.70200002 1.881 0.077
0.704 1.8839999 0.079000004
0.704 1.887 0.081
0.70599997 1.891 0.082999997
0.708 1.895 0.085000001
0.70899999 1.9 0.086999997
0.71100003 1.904 0.090000004
0.71200001 1.908 0.092
0.71399999 1.914 0.093999997
0.70200002 1.869 -0.15099999
0.70300001 1.873 -0.15000001
0.70499998 1.877 -0.148
0.70700002 1.882 -0.146
0.708 1.885 -0.14399999
0.70899999 1.887 -0.14300001
0.70899999 1.888 -0.141
0.70999998 1.89 -0.139
0.70999998 1.89 -0.13699999
0.70899999 1.888 -0.13500001
0.708 1.885 -0.133
0.70599997 1.881 -0.131
0.70499998 1.878 -0.12899999
0.704 1.876 -0.127
0.704 1.876 -0.125
0.704 1.875 -0.123
0.70499998 1.877 -0.121
0.70599997 1.88 -0.119
0.70499998 1.8789999 -0.117
0.704 1.876 -0.115
0.70300001 1.874 -0.113
0.704 1.874 -0.111
0.704 1.875 -0.109
0.704 1.876 -0.107
0.70300001 1.874 -0.105
0.70300001 1.874 0.072999999
0.704 1.877 0.075000003
0.70599997 1.88 0.077
0.70700002 1.8839999 0.079000004
0.708 1.887 0.081
0.70899999 1.89 0.082999997
0.70999998 1.893 0.085000001
0.71200001 1.897 0.086999997
0.71399999 1.904 0.090000004
0.71600002 1.909 0.092
0.71799999 1.914 0.093999997
0.70499998 1.868 -0.15099999
0.70700002 1.872 -0.15000001
0.708 1.877 -0.148
0.70999998 1.883 -0.147
0.71200001 1.887 -0.145
0.71399999 1.891 -0.14300001
0.71499997 1.8940001 -0.141
0.71499997 1.895 -0.14
0.71499997 1.895 -0.138
0.71399999 1.892 -0.13500001
0.71200001 1.887 -0.133
0.70899999 1.878 -0.13
0.70599997 1.872 -0.12800001
0.70499998 1.869 -0.126
0.70599997 1.873 -0.117
0.71200001 1.888 -0.116
0.71600002 1.899 -0.114
0.71899998 1.905 -0.112
0.72000003 1.908 -0.111
0.72000003 1.91 -0.109
0.72000003 1.909 -0.107
0.71899998 1.905 -0.105
0.70599997 1.873 0.016000001
0.70499998 1.872 0.059
0.70599997 1.874 0.061000001
0.70700002 1.875 0.063000001
0.70700002 1.875 0.064999998
0.70599997 1.874 0.067000002
0.70599997 1.873 0.068999998
0.70599997 1.874 0.071000002
0.70700002 1.877 0.072999999
0.708 1.8789999 0.075000003
0.70899999 1.881 0.077
0.70999998 1.883 0.079000004
0.71100003 1.886 0.081
0.71200001 1.8890001 0.082999997
0.713 1.891 0.085000001
0.71499997 1.896 0.086999997
0.71700001 1.902 0.090000004
0.708 1.8660001 -0.15099999
0.70999998 1.8710001 -0.15000001
0.71200001 1.876 -0.148
0.71399999 1.881 -0.147
0.71499997 1.885 -0.145
0.71700001 1.8890001 -0.14300001
0.71799999 1.892 -0.141
0.71799999 1.893 -0.14
0.71799999 1.893 -0.138
0.71700001 1.892 -0.13500001
0.71499997 1.886 -0.133
0.71100003 1.876 -0.13
0.708 1.867 -0.12800001
0.70899999 1.8710001 -0.118
0.71700001 1.891 -0.118
0.72600001 1.916 -0.117
0.73199999 1.931 -0.116
0.73299998 1.9349999 -0.114
0.73500001 1.939 -0.113
0.736 1.942 -0.111
0.736 1.943 -0.109
0.73500001 1.941 -0.107
0.74699998 1.973 0.025
0.73699999 1.946 0.027000001
0.71100003 1.8789999 0.057
0.713 1.8839999 0.059
0.71399999 1.886 0.061000001
0.71399999 1.885 0.063000001
0.713 1.883 0.064999998
0.71200001 1.881 0.067000002
0.71200001 1.8789999 0.068999998
0.71100003 1.8789999 0.071000002
0.71100003 1.8789999 0.072999999
0.71200001 1.88 0.075000003
0.71200001 1.881 0.077
0.713 1.883 0.079000004
0.713 1.8839999 0.081
0.71399999 1.887 0.082999997
0.71499997 1.8890001 0.085000001
0.71700001 1.8940001 0.086999997
0.71899998 1.9 0.090000004
0.71100003 1.864 -0.15099999
0.71200001 1.868 -0.15000001
0.71399999 1.873 -0.148
0.71600002 1.878 -0.146
0.71700001 1.883 -0.14399999
0.71899998 1.887 -0.14300001
0.72000003 1.8890001 -0.141
0.72000003 1.8890001 -0.139
0.71899998 1.888 -0.13699999
0.71899998 1.886 -0.13500001
0.71600002 1.8789999 -0.133
0.71100003 1.867 -0.13
0.713 1.872 -0.118
0.72100002 1.893 -0.118
0.72899997 1.916 -0.117
0.736 1.934 -0.116
0.741 1.946 -0.115
0.745 1.955 -0.114
0.74599999 1.96 -0.112
0.74699998 1.961 -0.11
0.745 1.9579999 -0.108
0.75099999 1.974 0.021
0.74400002 1.957 0.023
0.736 1.936 0.025
0.727 1.9119999 0.026000001
0.71700001 1.885 0.028000001
0.71100003 1.869 0.052999999
0.71600002 1.882 0.055
0.72000003 1.893 0.057999998
0.722 1.899 0.059999999
0.72299999 1.899 0.061999999
0.722 1.897 0.064000003
0.72000003 1.892 0.064999998
0.71799999 1.888 0.067000002
0.71700001 1.885 0.068999998
0.71700001 1.883 0.071000002
0.71600002 1.882 0.072999999
0.71600002 1.882 0.075000003
0.71600002 1.882 0.077
0.71700001 1.883 0.079000004
0.71700001 1.8839999 0.081
0.71700001 1.885 0.082999997
0.71799999 1.888 0.085000001
0.72000003 1.892 0.086999997
0.722 1.897 0.089000002
0.71399999 1.863 -0.15099999
0.71499997 1.8660001 -0.149
0.71600002 1.87 -0.148
0.71799999 1.875 -0.146
0.72000003 1.8789999 -0.14399999
0.72100002 1.883 -0.14300001
0.72100002 1.8839999 -0.141
0.72000003 1.881 -0.139
0.71899998 1.878 -0.13600001
0.71799999 1.876 -0.134
0.71499997 1.868 -0.132
0.71499997 1.869 -0.118
0.72399998 1.891 -0.118
0.73199999 1.915 -0.117
0.74000001 1.9349999 -0.116
0.74599999 1.95 -0.116
0.75 1.96 -0.114
0.75199997 1.965 -0.112
0.75199997 1.967 -0.11
0.75199997 1.964 -0.108
0.75 1.962 -0.106
0.74900001 1.959 -0.103
0.75199997 1.9680001 0.017000001
0.74900001 1.96 0.018999999
0.74400002 1.947 0.021
0.73699999 1.929 0.023
0.73000002 1.909 0.024
0.722 1.888 0.026000001
0.71899998 1.882 0.052999999
0.72500002 1.897 0.056000002
0.72899997 1.908 0.057999998
0.73100001 1.9119999 0.059999999
0.73000002 1.909 0.061999999
0.72899997 1.905 0.064000003
0.727 1.901 0.066
0.72500002 1.896 0.067000002
0.72299999 1.891 0.068999998
0.722 1.887 0.071000002
0.72000003 1.8839999 0.072999999
0.72000003 1.883 0.075000003
0.72000003 1.882 0.077
0.72000003 1.882 0.079000004
0.72000003 1.882 0.081
0.72000003 1.8839999 0.082999997
0.72100002 1.886 0.085000001
0.71600002 1.862 -0.15099999
0.71700001 1.864 -0.149
0.71899998 1.867 -0.147
0.72000003 1.8710001 -0.146
0.72100002 1.874 -0.14399999
0.722 1.876 -0.142
0.72100002 1.874 -0.14
0.71899998 1.869 -0.138
0.71700001 1.865 -0.13600001
0.72399998 1.8839999 -0.117
0.73500001 1.911 -0.117
0.74299997 1.933 -0.116
0.74900001 1.948 -0.115
0.75300002 1.9579999 -0.114
0.755 1.9630001 -0.112
0.755 1.965 -0.11
0.755 1.9630001 -0.108
0.75400001 1.961 -0.106
0.75199997 1.9579999 -0.103
0.74800003 1.949 0.013
0.74900001 1.951 0.015
0.74699998 1.947 0.017000001
0.74400002 1.938 0.018999999
0.73900002 1.925 0.021
0.73299998 1.908 0.022
0.72600001 1.8890001 0.024
0.71899998 1.8710001 0.026000001
0.71899998 1.873 0.050999999
0.72799999 1.895 0.054000001
0.73400003 1.91 0.056000002
0.73699999 1.918 0.057999998
0.73799998 1.919 0.059999999
0.736 1.914 0.061999999
0.73400003 1.91 0.064000003
0.73299998 1.906 0.066
0.73000002 1.901 0.068000004
0.72799999 1.8940001 0.068999998
0.72500002 1.8890001 0.071000002
0.72399998 1.885 0.072999999
0.72299999 1.883 0.075000003
0.72299999 1.882 0.077
0.72299999 1.881 0.079000004
0.72299999 1.882 0.081
0.72299999 1.883 0.082999997
0.72399998 1.886 0.085000001
0.72000003 1.862 -0.149
0.72000003 1.864 -0.147
0.72100002 1.864 -0.145
0.72100002 1.865 -0.14300001
0.72100002 1.865 -0.142
0.71899998 1.862 -0.14
0.722 1.869 -0.117
0.73400003 1.9 -0.116
0.74299997 1.924 -0.115
0.75 1.941 -0.114
0.75400001 1.952 -0.113
0.75599998 1.957 -0.112
0.75700003 1.959 -0.11
0.75599998 1.9579999 -0.108
0.755 1.955 -0.106
0.75300002 1.951 -0.103
0.74299997 1.925 0.013
0.74400002 1.927 0.015
0.74299997 1.924 0.017000001
0.73900002 1.916 0.017999999
0.73500001 1.904 0.02
0.72899997 1.888 0.022
0.722 1.8710001 0.024
0.722 1.869 0.048999999
0.72799999 1.886 0.050999999
0.736 1.9069999 0.054000001
0.74000001 1.919 0.056000002
0.74199998 1.9220001 0.059
0.741 1.921 0.061000001
0.73900002 1.915 0.061999999
0.73699999 1.91 0.064000003
0.73500001 1.905 0.066
0.73299998 1.899 0.068000004
0.73100001 1.892 0.068999998
0.72899997 1.887 0.071000002
0.727 1.8839999 0.072999999
0.72600001 1.883 0.075000003
0.72600001 1.882 0.077
0.727 1.882 0.079000004
0.727 1.883 0.081
0.72799999 1.885 0.082999997
0.72899997 1.888 0.085000001
0.73199999 1.885 -0.115
0.74199998 1.91 -0.115
0.74900001 1.928 -0.114
0.75300002 1.9400001 -0.113
0.755 1.946 -0.111
0.75599998 1.947 -0.109
0.755 1.9450001 -0.107
0.75300002 1.9400001 -0.105
0.75099999 1.934 -0.102
0.72600001 1.8710001 -0.097000003
0.736 1.898 0.012
0.73799998 1.904 0.014
0.73799998 1.904 0.016000001
0.736 1.897 0.017999999
0.73100001 1.886 0.02
0.72500002 1.869 0.022
0.72500002 1.87 0.046999998
0.72899997 1.881 0.050000001
0.73400003 1.8940001 0.052000001
0.74000001 1.91 0.054000001
0.74400002 1.918 0.056000002
0.74400002 1.918 0.057999998
0.74299997 1.9170001 0.059999999
0.741 1.9119999 0.061999999
0.74000001 1.908 0.064000003
0.73799998 1.902 0.066
0.73500001 1.896 0.068000004
0.73299998 1.89 0.068999998
0.73100001 1.886 0.071000002
0.73100001 1.8839999 0.072999999
0.73000002 1.883 0.075000003
0.73000002 1.882 0.077
0.73000002 1.882 0.079000004
0.73100001 1.885 0.081
0.73299998 1.8890001 0.082999997
0.727 1.8660001 0.0080000004
0.73100001 1.876 0.0099999998
0.73400003 1.8839999 0.012
0.73699999 1.892 0.014
0.73799998 1.8940001 0.016000001
0.736 1.89 0.017999999
0.72799999 1.868 0.045000002
0.73299998 1.88 0.046999998
0.73699999 1.893 0.050000001
0.74199998 1.905 0.052000001
0.74599999 1.914 0.055
0.74699998 1.919 0.057
0.74699998 1.918 0.057999998
0.74599999 1.914 0.059999999
0.74400002 1.909 0.061999999
0.741 1.902 0.064000003
0.73799998 1.8940001 0.064999998
0.736 1.888 0.067000002
0.73500001 1.886 0.068999998
0.73400003 1.883 0.071000002
0.73299998 1.881 0.072999999
0.73299998 1.88 0.075000003
0.73199999 1.878 0.077
0.72899997 1.863 0.0099999998
0.73299998 1.874 0.012
0.73699999 1.8839999 0.014
0.72899997 1.862 0.043000001
0.73400003 1.876 0.045000002
0.73900002 1.888 0.048
0.74299997 1.898 0.050000001
0.74599999 1.906 0.052000001
0.74800003 1.9119999 0.054000001
0.74900001 1.914 0.056000002
0.74800003 1.911 0.057999998
0.74599999 1.906 0.059999999
0.74400002 1.9 0.061999999
0.741 1.8940001 0.064000003
0.73900002 1.887 0.064999998
0.73699999 1.8839999 0.067000002
0.73699999 1.882 0.068999998
0.736 1.88 0.071000002
0.736 1.878 0.072999999
0.73400003 1.867 0.012
0.73900002 1.88 0.014
0.73400003 1.8660001 0.043000001
0.74000001 1.881 0.046
0.74400002 1.89 0.048
0.74599999 1.895 0.050000001
0.74800003 1.9 0.052000001
0.74900001 1.906 0.054000001
0.75 1.906 0.056000002
0.74800003 1.902 0.057999998
0.74599999 1.897 0.059999999
0.74400002 1.891 0.061999999
0.74199998 1.886 0.064000003
0.74000001 1.882 0.064999998
0.74000001 1.88 0.067000002
0.73900002 1.8789999 0.068999998
0.73900002 1.877 0.071000002
0.73699999 1.873 0.072999999
0.73799998 1.867 0.012
0.745 1.8839999 0.014
0.73500001 1.86 0.032000002
0.736 1.863 0.043000001
0.74199998 1.878 0.046
0.745 1.885 0.048
0.74599999 1.886 0.050000001
0.74699998 1.891 0.052000001
0.75 1.898 0.054000001
0.75 1.9 0.056000002
0.74900001 1.895 0.057999998
0.74699998 1.891 0.059999999
0.745 1.887 0.061000001
0.74400002 1.882 0.063000001
0.74199998 1.877 0.064999998
0.741 1.875 0.067000002
0.741 1.874 0.068999998
0.74000001 1.872 0.071000002
0.73799998 1.869 0.072999999
0.74400002 1.874 0.012
0.75300002 1.898 0.014
0.74000001 1.864 0.032000002
0.741 1.865 0.046999998
0.74400002 1.874 0.048999999
0.74699998 1.881 0.050999999
0.75 1.888 0.054000001
0.75 1.89 0.056000002
0.74900001 1.888 0.057999998
0.74800003 1.885 0.059999999
0.74699998 1.882 0.061000001
0.74599999 1.8789999 0.063000001
0.745 1.876 0.064999998
0.74400002 1.875 0.067000002
0.74400002 1.874 0.068999998
0.74400002 1.874 0.071000002
0.74400002 1.873 0.072999999
0.74400002 1.865 0.0099999998
0.75199997 1.886 0.012
0.76099998 1.908 0.015
0.74299997 1.863 0.048999999
0.74699998 1.8710001 0.050999999
0.74900001 1.878 0.052999999
0.75 1.881 0.055
0.75 1.881 0.057
0.74900001 1.8789999 0.059
0.74900001 1.877 0.061000001
0.74800003 1.876 0.063000001
0.74699998 1.874 0.064999998
0.74699998 1.873 0.067000002
0.74699998 1.873 0.068999998
0.77600002 1.936 -0.032000002
0.76999998 1.921 -0.029999999
0.74400002 1.857 0.0080000004
0.75300002 1.8789999 0.0099999998
0.76099998 1.899 0.012
0.76700002 1.915 0.015
0.77200001 1.926 0.017000001
0.77399999 1.933 0.018999999
0.77499998 1.9349999 0.021
0.77399999 1.933 0.023
0.77200001 1.927 0.025
0.76800001 1.918 0.027000001
0.74599999 1.8609999 0.050999999
0.74800003 1.867 0.052999999
0.75 1.8710001 0.055
0.75 1.873 0.057
0.75 1.873 0.059
0.75 1.872 0.061000001
0.75 1.8710001 0.063000001
0.75 1.872 0.064999998
0.75099999 1.873 0.067000002
0.75099999 1.874 0.068999998
0.78899997 1.961 -0.045000002
0.78899997 1.961 -0.043000001
0.78799999 1.959 -0.041000001
0.787 1.955 -0.037999999
0.78399998 1.947 -0.035999998
0.77999997 1.937 -0.034000002
0.77399999 1.9220001 -0.032000002
0.76499999 1.9 -0.028999999
0.75599998 1.878 -0.027000001
0.74699998 1.8559999 -0.025
0.75099999 1.865 0.0080000004
0.75999999 1.887 0.0099999998
0.76700002 1.904 0.012
0.77200001 1.9170001 0.015
0.77499998 1.925 0.017000001
0.77700001 1.9299999 0.018999999
0.77700001 1.932 0.021
0.77600002 1.9299999 0.023
0.77399999 1.924 0.025
0.76999998 1.915 0.027000001
0.76300001 1.898 0.028999999
0.75400001 1.873 0.029999999
0.74800003 1.858 0.032000002
0.74800003 1.859 0.052999999
0.75 1.862 0.055
0.75099999 1.865 0.057
0.75099999 1.8660001 0.059
0.75099999 1.865 0.061000001
0.75199997 1.867 0.063000001
0.75300002 1.8710001 0.064999998
0.78899997 1.9529999 -0.045000002
0.79000002 1.9529999 -0.041999999
0.78799999 1.95 -0.039999999
0.78600001 1.944 -0.037999999
0.78200001 1.933 -0.035999998
0.77499998 1.916 -0.033
0.76599997 1.8940001 -0.030999999
0.755 1.867 -0.028999999
0.75599998 1.868 0.0080000004
0.76200002 1.883 0.0099999998
0.76800001 1.899 0.012
0.77399999 1.915 0.015
0.778 1.925 0.017000001
0.77999997 1.928 0.018999999
0.77999997 1.929 0.021
0.77899998 1.926 0.023
0.77600002 1.918 0.025
0.76999998 1.905 0.026000001
0.76200002 1.887 0.028000001
0.75300002 1.863 0.029999999
0.75 1.854 0.052999999
0.75099999 1.8559999 0.055
0.75199997 1.858 0.057
0.75199997 1.859 0.059
0.75199997 1.86 0.061000001
0.764 1.88 -0.045000002
0.78500003 1.933 -0.044
0.78600001 1.9349999 -0.041999999
0.78399998 1.9299999 -0.039999999
0.77999997 1.921 -0.037999999
0.77399999 1.905 -0.035999998
0.76499999 1.8839999 -0.033
0.75599998 1.8609999 -0.030999999
0.75300002 1.853 0.0060000001
0.75999999 1.87 0.0080000004
0.76700002 1.89 0.0099999998
0.77399999 1.905 0.012
0.778 1.916 0.015
0.78100002 1.923 0.017000001
0.78299999 1.927 0.018999999
0.78299999 1.928 0.021
0.78200001 1.926 0.023
0.77899998 1.9170001 0.025
0.773 1.902 0.026000001
0.764 1.882 0.028000001
0.75400001 1.857 0.028999999
0.75999999 1.8609999 -0.050000001
0.77100003 1.89 -0.048999999
0.778 1.9069999 -0.046999998
0.78100002 1.913 -0.045000002
0.78200001 1.9170001 -0.043000001
0.78299999 1.918 -0.041999999
0.77999997 1.91 -0.039999999
0.773 1.893 -0.037
0.76599997 1.876 -0.035
0.75800002 1.858 -0.033
0.75700003 1.855 0.0060000001
0.76300001 1.87 0.0080000004
0.76999998 1.8890001 0.0099999998
0.77600002 1.903 0.012
0.77999997 1.9119999 0.015
0.78200001 1.918 0.017000001
0.78299999 1.921 0.018999999
0.78399998 1.921 0.021
0.78299999 1.92 0.023
0.77899998 1.91 0.025
0.773 1.8940001 0.026000001
0.764 1.873 0.028000001
0.75800002 1.846 -0.141
0.759 1.849 -0.139
0.759 1.849 -0.13699999
0.75999999 1.852 -0.116
0.76200002 1.8559999 -0.114
0.76300001 1.8609999 -0.113
0.76499999 1.864 -0.111
0.75999999 1.854 -0.048
0.76499999 1.8660001 -0.046
0.76899999 1.875 -0.044
0.77100003 1.88 -0.043000001
0.77200001 1.882 -0.041000001
0.76999998 1.877 -0.039000001
0.76499999 1.865 -0.037
0.75999999 1.854 0.0060000001
0.76499999 1.8660001 0.0080000004
0.77200001 1.8839999 0.0099999998
0.778 1.897 0.012
0.77999997 1.905 0.014
0.78200001 1.91 0.016000001
0.78399998 1.9119999 0.017999999
0.78399998 1.9119999 0.02
0.78299999 1.91 0.022
0.77899998 1.901 0.024
0.77200001 1.8839999 0.026000001
0.764 1.864 0.028000001
0.76099998 1.845 -0.14300001
0.76300001 1.85 -0.141
0.764 1.853 -0.139
0.764 1.854 -0.138
0.76200002 1.847 -0.13600001
0.76099998 1.846 -0.118
0.76700002 1.86 -0.116
0.76899999 1.8660001 -0.115
0.77100003 1.8710001 -0.113
0.773 1.875 -0.112
0.76599997 1.859 -0.011
0.76999998 1.8710001 -0.0089999996
0.77100003 1.873 -0.0070000002
0.76800001 1.865 -0.0049999999
0.76499999 1.857 -0.003
0.76200002 1.851 -0.001
0.76200002 1.851 0.0020000001
0.76200002 1.851 0.0040000002
0.76099998 1.85 0.0060000001
0.764 1.857 0.0080000004
0.77100003 1.873 0.0099999998
0.77600002 1.8839999 0.012
0.778 1.891 0.014
0.78100002 1.896 0.016000001
0.78299999 1.901 0.017999999
0.78299999 1.902 0.02
0.78200001 1.899 0.022
0.778 1.89 0.024
0.77200001 1.874 0.026000001
0.764 1.857 0.028000001
0.764 1.8430001 -0.145
0.76599997 1.848 -0.14300001
0.76800001 1.853 -0.142
0.76800001 1.855 -0.14
0.76800001 1.853 -0.138
0.76499999 1.846 -0.13600001
0.76800001 1.853 -0.118
0.773 1.8660001 -0.117
0.77499998 1.87 -0.115
0.77600002 1.875 -0.113
0.778 1.8789999 -0.112
0.77100003 1.8660001 -0.015
0.778 1.882 -0.013
0.78200001 1.892 -0.011
0.78399998 1.896 -0.0089999996
0.78200001 1.891 -0.0070000002
0.77700001 1.878 -0.0049999999
0.77200001 1.867 -0.003
0.76899999 1.859 -0.001
0.76700002 1.854 0.001
0.76700002 1.854 0.0020000001
0.76499999 1.851 0.0040000002
0.76599997 1.853 0.0099999998
0.76899999 1.8609999 0.012
0.773 1.868 0.014
0.77600002 1.876 0.016000001
0.77999997 1.885 0.017999999
0.78100002 1.888 0.02
0.77999997 1.886 0.022
0.77700001 1.878 0.024
0.77200001 1.8660001 0.026000001
0.76599997 1.851 0.028000001
0.76899999 1.847 -0.145
0.77100003 1.852 -0.14300001
0.77200001 1.855 -0.142
0.77200001 1.8559999 -0.14
0.77100003 1.853 -0.138
0.76800001 1.845 -0.13600001
0.773 1.857 -0.117
0.77700001 1.869 -0.115
0.77999997 1.876 -0.114
0.78100002 1.8789999 -0.112
0.76899999 1.851 -0.067000002
0.76899999 1.849 -0.030999999
0.77100003 1.855 -0.028999999
0.773 1.8609999 -0.027000001
0.77600002 1.868 -0.025
0.787 1.8940001 -0.015
0.79000002 1.901 -0.013
0.792 1.905 -0.011
0.79100001 1.904 -0.0089999996
0.78799999 1.898 -0.0070000002
0.78299999 1.885 -0.0049999999
0.77999997 1.877 -0.003
0.778 1.874 -0.001
0.77600002 1.868 0.001
0.77200001 1.858 0.0020000001
