ply
format ascii 1.0
comment PCL generated
element vertex 1684
property float x
property float y
property float z
element face 0
element camera 0
property float view_px
property float view_py
property float view_pz
property float x_axisx
property float x_axisy
property float x_axisz
property float y_axisx
property float y_axisy
property float y_axisz
property float z_axisx
property float z_axisy
property float z_axisz
property float focal
property float scalex
property float scaley
property float centerx
property float centery
property int viewportx
property int viewporty
property float k1
property float k2
end_header
-0.068138897 0.10772222 2.3325279
-0.035999998 0.104 2.339
-0.093000002 0.122 2.3280001
-0.043000001 0.15333332 2.3393333
-0.038999997 0.154 2.3395
-0.059 0.215 2.326
-0.046571434 0.22714284 2.3300717
-0.037749998 0.22975001 2.3286252
-0.20999999 -0.105 2.3599999
-0.2 -0.086000003 2.358
-0.197 -0.078000002 2.355
-0.092 -0.074000001 2.3499999
-0.14833333 -0.046666667 2.3436668
-0.14300001 -0.039999999 2.3410001
-0.13680001 -0.028999999 2.3438001
0.033200003 -0.0252 2.3474
0.03018182 -0.011727273 2.3457272
-0.1375 0.0040000002 2.3545001
-0.043499999 0.016000001 2.345
0.014666666 0.0105 2.3430002
0.023294121 0.0090588238 2.3501177
-0.001 0.037999999 2.3410001
0.011181817 0.029636361 2.3506362
-0.139 0.050999999 2.3445001
-0.001 0.041000001 2.3469999
0.015 0.052999999 2.3469999
-0.071999997 0.079000004 2.3545001
-0.0122 0.075600006 2.348
-0.13342857 0.094285719 2.3569283
-0.082799993 0.089600004 2.3545997
-0.072217397 0.087347828 2.3457828
-0.015500001 0.083250001 2.352
-0.12935714 0.10407142 2.3562856
-0.082333334 0.10433334 2.3526666
-0.073600002 0.11070001 2.3454001
-0.057999998 0.116 2.3455
-0.0038333323 0.11041667 2.3530834
0.0034545453 0.10990909 2.3543634
-0.11031251 0.133375 2.3520002
-0.065499999 0.12225001 2.3492501
-0.057999998 0.122 2.3505001
-0.0020000001 0.12 2.3545001
0.001 0.12 2.3570001
-0.15700001 0.142 2.3540001
-0.11 0.14325 2.35425
-0.0471 0.14990003 2.3497996
-0.034400001 0.14964998 2.3499501
-0.069800004 0.1752 2.3578
-0.046800002 0.16249999 2.3523998
-0.035624996 0.161625 2.348
-0.086642861 0.19471428 2.3499999
-0.073875003 0.18587503 2.353375
-0.024 0.19499999 2.359
-0.012615386 0.19515382 2.3533075
-0.108 0.21699999 2.346
-0.085571423 0.20385715 2.3515716
-0.077800006 0.206 2.3548
-0.014285715 0.20371428 2.3527143
-0.053000003 0.22671428 2.350143
-0.035500001 0.228 2.3478334
0.010705883 0.23135293 2.354059
0.011571429 0.2422857 2.3540001
-0.221 -0.12800001 2.3759999
-0.21289997 -0.12609999 2.3699999
-0.21066666 -0.12 2.3756666
-0.20100001 -0.068000004 2.3699999
-0.1425 0.0040000002 2.3670001
0.0266 0.0164 2.3673999
-0.21699999 0.027000001 2.372
0.0165 0.029999999 2.3664999
-0.0099999998 0.079000004 2.362
-0.14240001 0.092199996 2.3708
-0.13144445 0.089277774 2.3683887
-0.12 0.082000002 2.3610001
-0.086000003 0.096000001 2.3715
-0.0109 0.090800002 2.3715
-0.142 0.102 2.375
-0.12878947 0.11068422 2.3693686
-0.085000001 0.10666666 2.3673334
-0.055 0.117 2.369
-0.0063999994 0.1064 2.3674998
0.010157895 0.10642105 2.3690524
-0.12149999 0.12716667 2.3770001
-0.11700001 0.1275 2.37025
-0.098000005 0.1285 2.3705001
-0.068800002 0.1248 2.3684001
-0.056400001 0.12560001 2.3700001
-0.026000001 0.139 2.3610001
-0.0038749999 0.12475 2.36975
0.0032000002 0.1234 2.3708
-0.122 0.14 2.3789999
-0.11533333 0.1445 2.3669999
-0.053166673 0.14933334 2.3689997
-0.030199999 0.14680001 2.3682001
-0.015 0.14 2.3789999
-0.1 0.177 2.375
-0.068124995 0.1725 2.3696249
-0.052999999 0.16730769 2.3712306
-0.032571428 0.16700003 2.3671429
-0.085750006 0.18674998 2.3704166
-0.073777772 0.18377778 2.3672221
-0.012357143 0.19185713 2.3696427
-0.162 0.20840001 2.3778
-0.15589471 0.20863156 2.3717368
-0.089882359 0.20994115 2.3711181
-0.072700001 0.21340001 2.3698997
-0.012428571 0.20878573 2.3699286
0.011333334 0.219 2.3776665
-0.0515 0.23100001 2.36725
-0.032666668 0.2295 2.3685
0.0088260863 0.22786957 2.3696525
0.0041999999 0.245 2.3701999
-0.22462498 -0.125625 2.3875
-0.219 -0.121 2.3840001
-0.222 -0.117 2.3940001
-0.21354546 -0.11590909 2.3904545
-0.19499999 -0.102 2.391
-0.048 -0.093999997 2.3959999
-0.20200001 -0.045000002 2.3840001
-0.233 0.0080000004 2.388
-0.18799999 0.030999999 2.381
-0.191 0.046 2.395
-0.16344444 0.052222226 2.3887777
-0.15788889 0.052666668 2.3895557
0.035 0.057 2.3900001
-0.162 0.061999999 2.3940001
-0.1578 0.062600002 2.3947999
-0.122 0.075999998 2.3989999
0.034400005 0.068000004 2.3854001
-0.1451 0.088100001 2.3904002
-0.12614284 0.087142862 2.3864286
-0.088 0.097000003 2.3940001
-0.010272727 0.092090897 2.383091
0.011299999 0.097799994 2.3878002
0.026937503 0.091375001 2.39325
-0.14375 0.1065 2.3894999
-0.13500001 0.116 2.3912499
-0.119 0.1155 2.3825002
-0.088 0.1045 2.3885
-0.052999999 0.118 2.398
-0.011285713 0.10814286 2.3858571
0.01425 0.112 2.3872499
0.020999998 0.10433333 2.3883333
-0.12557143 0.12771429 2.3901429
-0.116 0.121 2.3840001
-0.090000004 0.127 2.3899999
-0.069000006 0.127 2.382
-0.055799998 0.1294 2.3928001
-0.0058333334 0.12899999 2.3916667
0.0065714284 0.12628572 2.3897145
-0.16500001 0.156 2.3966665
-0.154 0.145 2.3989999
-0.123 0.14466667 2.3933332
-0.119 0.148 2.382
-0.050111111 0.14399999 2.3862221
-0.034333337 0.14666666 2.388
-0.16832258 0.16825809 2.3935478
-0.15241666 0.17358331 2.3957918
-0.117 0.163 2.388
-0.081 0.17900001 2.3929999
-0.069833331 0.16833334 2.3889999
-0.054222226 0.17122222 2.3863335
-0.031111112 0.17144445 2.3876667
-0.1664138 0.1887241 2.394069
-0.15609524 0.18990476 2.391238
-0.089600004 0.1848 2.3896
-0.022 0.198 2.3929999
-0.0093 0.18899998 2.3869002
0.028999999 0.19599999 2.3978751
-0.1846875 0.2115 2.3931875
-0.17191179 0.20991176 2.3927352
-0.15099999 0.2015 2.3870001
-0.10333333 0.21799999 2.3946667
-0.094333328 0.2155 2.3840001
-0.064999998 0.21499999 2.3889999
-0.044 0.21600001 2.3889999
-0.022 0.2086 2.3852
-0.0066428571 0.2132857 2.3861427
0.010777777 0.21655555 2.3945558
0.026869563 0.20799999 2.3947823
-0.18670835 0.2298333 2.3934591
-0.17241937 0.22748385 2.3942575
-0.106 0.22499999 2.395
-0.089142859 0.22114284 2.3969998
-0.069363639 0.22245455 2.3873637
-0.059 0.2335 2.3885
-0.028750002 0.22666667 2.3907502
-0.0066249995 0.22462498 2.3929374
0.0089999996 0.22 2.3836
0.02 0.222 2.3825002
-0.18608332 0.24266666 2.3918335
-0.17920001 0.24419999 2.3964
-0.055 0.23999999 2.392
-0.001 0.23999999 2.3929999
0.0020000001 0.24733333 2.3916667
-0.23033333 -0.126 2.4063332
-0.22366667 -0.11433333 2.4093335
-0.213875 -0.110875 2.40975
-0.19400001 -0.097999997 2.404
-0.12650001 -0.083999999 2.4130001
-0.0735 -0.050000001 2.4105
-0.19816667 -0.029333333 2.4104998
-0.19233334 -0.0080000004 2.4169998
-0.18857141 0.0062857145 2.4145715
0.035 0.037999999 2.4170001
-0.17299999 0.054000001 2.4083331
-0.1556 0.050199997 2.4098001
0.033 0.057999998 2.418
-0.182 0.064999998 2.404
-0.1648 0.065000005 2.4098001
-0.15336365 0.07 2.4124544
-0.125 0.075000003 2.4105
-0.12 0.075999998 2.4059999
0.032000002 0.064999998 2.4076667
-0.14825001 0.085999995 2.404
-0.13 0.080555551 2.405
-0.12 0.081 2.4170001
-0.0049999999 0.085999995 2.411
0.0086666672 0.095999993 2.411
0.031384613 0.089230761 2.4053078
-0.1462 0.10959999 2.4078002
-0.13699999 0.119 2.4089999
-0.092 0.1055 2.4109998
-0.013666667 0.11466666 2.4126666
0.016000001 0.11433333 2.4043334
0.026428571 0.10457142 2.4107144
-0.16685714 0.13671429 2.416286
-0.12899999 0.13039999 2.4095998
-0.06825 0.131 2.405
-0.051555559 0.13688889 2.4118888
-0.0069999998 0.13333334 2.4104998
0.009142858 0.13028571 2.4087143
-0.18099999 0.148 2.4175
-0.16949998 0.14912499 2.407969
-0.15899999 0.156 2.4165001
-0.12466667 0.14966667 2.4126666
-0.12 0.153 2.404
-0.058249999 0.15125 2.4105
-0.031666666 0.14133333 2.408
0.01511111 0.15066668 2.4136667
0.020500001 0.15200001 2.4164999
-0.14850001 0.16675001 2.4075
-0.13933332 0.16666667 2.4123333
-0.082000002 0.17050001 2.4085
-0.072750002 0.16824999 2.4075
-0.055500001 0.17750001 2.402
-0.025500001 0.16875 2.4137499
0.015583334 0.16533333 2.4145
0.0255 0.17308335 2.4164999
-0.18249999 0.19274999 2.4093335
-0.17593333 0.1893333 2.4056666
-0.14858332 0.18933333 2.4055834
-0.108 0.18000001 2.404
-0.092499994 0.18280001 2.4115
-0.052749999 0.18275 2.4064999
-0.030000001 0.184375 2.411
-0.0084999995 0.18721429 2.4095714
0.027558824 0.18779407 2.4074419
-0.18000001 0.20299999 2.4000001
-0.14950001 0.2015 2.411
-0.108 0.21799999 2.405
-0.064500004 0.21450001 2.4105
-0.024750002 0.21525 2.4057498
-0.001 0.20666666 2.4023333
0.0092352936 0.20988235 2.4112351
0.025 0.204 2.4013336
-0.16811112 0.23633334 2.406333
-0.1089 0.22610001 2.4067001
-0.098999999 0.222 2.4030001
-0.069555551 0.23111111 2.4105556
-0.041000001 0.221 2.4030001
-0.028833337 0.22641665 2.4084165
-0.0095833326 0.22933334 2.4095833
-0.17336363 0.24527273 2.4072726
-0.121 0.257 2.4089999
-0.068000004 0.25799999 2.4189999
-0.057999998 0.242 2.4119999
-0.028999999 0.241 2.401
-0.0016666666 0.24566667 2.4090002
0.001 0.25299999 2.4130001
-0.022 0.27599999 2.405
-0.0099999998 0.27599999 2.4059999
-0.241 -0.132 2.437
-0.23466666 -0.127 2.424
-0.22485714 -0.11042858 2.428
-0.21233332 -0.109 2.4293334
-0.21533334 -0.090000004 2.4343336
-0.21159999 -0.072999999 2.4368
-0.17399999 -0.072999999 2.4260001
-0.20550001 -0.041999999 2.4359999
-0.20561539 -0.029153846 2.4315386
-0.2 -0.024 2.4235001
-0.203375 -0.012250001 2.43325
-0.19700001 -0.0080000004 2.4256666
-0.22575 0.014500001 2.436625
-0.20766668 0.0066666673 2.4383333
-0.19500001 0.0086666672 2.4292221
-0.22409999 0.0232 2.4344001
-0.21129629 0.031148147 2.4354074
-0.19666667 0.022 2.437
0.032000002 0.036333334 2.4306667
-0.20200001 0.043000001 2.4389999
-0.1735 0.056000002 2.4295001
-0.15479998 0.050199997 2.4317997
-0.16714285 0.069428571 2.4305713
-0.15107693 0.073846154 2.4263844
-0.13349999 0.076500006 2.4314997
-0.182 0.097000003 2.4389999
-0.15266667 0.087500006 2.4238331
-0.0039999997 0.085000001 2.4264998
0.0098000001 0.093200013 2.4285998
0.027000001 0.083000004 2.4289999
-0.18266666 0.105 2.4376667
-0.175125 0.11199999 2.4367499
-0.15062501 0.1105 2.4286249
-0.093500003 0.104 2.4254999
-0.022 0.108 2.425
-0.015 0.116 2.4330001
0.0175 0.1175 2.4219999
0.030249998 0.10799999 2.4304163
-0.182 0.139 2.4300001
-0.17051612 0.12832257 2.4275484
-0.14399999 0.12 2.438
-0.13466667 0.12683333 2.4266667
-0.066500008 0.13599999 2.4277501
-0.049428571 0.13014285 2.4277146
-0.039999999 0.139 2.4300001
-0.011 0.134 2.4272499
0.012687501 0.13474998 2.4279373
0.030499997 0.13400002 2.4342501
-0.182 0.14300001 2.424
-0.17900001 0.14300001 2.421
-0.15899999 0.15000001 2.4200001
-0.1252 0.15459999 2.4294
-0.061000001 0.155 2.4360001
-0.057500001 0.14500001 2.4275
-0.037 0.14 2.437
0.0094999988 0.147375 2.4272501
0.027375 0.14837502 2.4312088
-0.14559999 0.1636 2.4338
-0.13275 0.16474999 2.4337499
-0.102 0.178 2.434
-0.091624998 0.177 2.426125
-0.071999997 0.1674 2.4285998
-0.024 0.17475 2.4275
0.011642857 0.17342857 2.4269288
0.029043481 0.16747822 2.4270871
-0.098999999 0.18233334 2.4230001
-0.051666666 0.18233334 2.425
-0.025900001 0.1864 2.4273
-0.0094000008 0.18230002 2.4356999
0.010433334 0.18836667 2.4311996
-0.0295 0.21125001 2.42975
0.0105 0.20743749 2.4295001
-0.12550001 0.235 2.4351249
-0.11740001 0.23480001 2.4288001
-0.072500005 0.23625 2.4307499
-0.0265 0.228 2.427
-0.0135 0.23399997 2.427
-0.16625001 0.24525002 2.4252501
-0.12699999 0.241 2.4366667
-0.1135 0.2405 2.4349999
-0.064000003 0.24266666 2.4336665
-0.026000001 0.24149999 2.4265001
-0.0053333337 0.24699999 2.4316666
-0.097999997 0.27900001 2.4319999
-0.086666666 0.292 2.4220002
-0.078000002 0.28200001 2.428
-0.245 -0.133 2.4560001
-0.23733334 -0.12466667 2.4516668
-0.22660001 -0.1058 2.4493999
-0.22328572 -0.090857141 2.4535713
-0.21799999 -0.087499991 2.4441252
-0.244 -0.061999999 2.4580002
-0.221 -0.07 2.4560001
-0.21450001 -0.070124999 2.447125
-0.13500001 -0.07 2.4530001
0.02 -0.061000001 2.45
-0.24360001 -0.050000001 2.4558003
-0.23933333 -0.043333333 2.4563334
-0.21278574 -0.050428577 2.4539998
0.017999999 -0.050999999 2.4460001
-0.243 -0.030199999 2.4520001
-0.23495454 -0.029045455 2.4534998
-0.21412496 -0.030687502 2.451875
-0.243 -0.012000001 2.4478002
-0.23132434 -0.01145946 2.448081
-0.212125 -0.011416666 2.4493749
-0.242 0.0020000001 2.4460001
-0.22996294 0.0050370372 2.4423707
-0.21137835 0.0081081064 2.4479728
-0.20626666 0.024 2.4414001
-0.19720002 0.032699998 2.4409001
-0.154 0.039000001 2.4460001
0.030999999 0.039000001 2.4449999
-0.19633333 0.0425 2.4484999
-0.17733334 0.056666669 2.4489999
-0.15275 0.049999997 2.4519999
0.030999999 0.059 2.4579999
-0.1706 0.071599998 2.4494998
-0.14925 0.068000004 2.4472501
-0.12899999 0.074000001 2.447
0.030999998 0.066333331 2.4460001
-0.175 0.093799993 2.4534001
-0.1566 0.089599997 2.4438
-0.0023333335 0.085666679 2.4519999
0.0069999998 0.093666665 2.4519999
0.026000001 0.082000002 2.4519999
-0.17052381 0.10947619 2.4486668
-0.15718183 0.10954545 2.4451818
-0.096333332 0.10533333 2.4490001
-0.017999999 0.113 2.4489999
0.029888889 0.11555555 2.4475558
-0.161 0.12399999 2.4406667
-0.15350001 0.123 2.4520001
-0.13533334 0.132 2.4459999
-0.0735 0.134 2.4454999
-0.04775 0.134 2.4535
-0.016142856 0.13071428 2.4498572
0.0178 0.1288 2.4468
0.026666669 0.12820832 2.4492505
-0.13028571 0.15057144 2.4447143
-0.063749999 0.14874999 2.45
-0.059 0.14399999 2.4449999
-0.028833335 0.14016666 2.4490001
-0.010599999 0.1432 2.4451003
0.0040000002 0.14874999 2.4472499
0.033199999 0.1538 2.4417999
-0.14533333 0.16066666 2.4583333
-0.13086666 0.16393334 2.4482665
-0.111 0.17625001 2.4502499
-0.083499998 0.1725 2.44925
-0.072333328 0.16599999 2.45
-0.023 0.167 2.4423335
-0.015799999 0.17700002 2.4514
0.0044000004 0.1717 2.4479003
-0.111 0.18000001 2.4590001
-0.050000001 0.1875 2.4530001
-0.032125 0.19025001 2.4463751
-0.0094999997 0.18000001 2.457
0.0087000001 0.19319999 2.4436998
-0.031500001 0.2165 2.4549999
0.0086666672 0.204 2.4438334
-0.043000001 0.222 2.451
-0.036499999 0.22175001 2.447
-0.0165 0.237 2.4405
-0.1249091 0.24681817 2.448
-0.11616667 0.245 2.4486666
-0.07 0.24442856 2.4522858
-0.059 0.249 2.447
-0.024750002 0.24525 2.4475002
-0.011583333 0.24775 2.4513333
-0.033 0.26199999 2.457
-0.0060000001 0.26699999 2.4559999
0.0040000002 0.2915 2.457
-0.243 -0.1275 2.471
-0.23100001 -0.111 2.4625001
-0.22750001 -0.088000007 2.4737501
-0.21600001 -0.087500006 2.4630001
-0.12900001 -0.082000002 2.4689999
-0.24389999 -0.069699995 2.4693
-0.22765002 -0.06955 2.4703498
-0.219 -0.061999999 2.464
-0.0099999998 -0.061999999 2.4679999
-0.241 -0.057999998 2.4619999
-0.23093329 -0.050099991 2.4718328
-0.21883333 -0.049999997 2.4696667
-0.07 -0.052999999 2.4772501
-0.2242 -0.030133333 2.4683335
-0.21799999 -0.037999999 2.461
-0.22228573 -0.016000001 2.4614284
-0.21799999 -0.0060000001 2.461
-0.153 0.039000001 2.4619999
-0.18900001 0.052705877 2.4658237
-0.153 0.053666666 2.4649999
0.014 0.050999999 2.46
-0.185 0.066000007 2.4672501
-0.17645456 0.07363636 2.4636366
-0.1472 0.070200004 2.4672
-0.13675 0.075000003 2.4650002
0.0040000002 0.071000002 2.47
0.028999999 0.069000006 2.4755001
-0.17157142 0.089285724 2.4710002
-0.15924999 0.092 2.4612501
-0.001 0.086999997 2.4749999
0.0080000004 0.092666663 2.4679997
0.024 0.082000002 2.4719999
-0.16724999 0.10499999 2.4678335
-0.109 0.118 2.474
-0.098999999 0.1045 2.471
-0.035 0.11 2.4660001
-0.018999999 0.1155 2.4705
-0.15108334 0.1295 2.47175
-0.13833334 0.13366668 2.4656668
-0.082000002 0.134 2.4760001
-0.076499999 0.13499999 2.4635
-0.047249999 0.1295 2.46925
-0.031499997 0.13775 2.4720001
-0.018399999 0.1288 2.4716001
0.027000001 0.123 2.4606667
-0.14975001 0.15325001 2.4751248
-0.13566667 0.15111113 2.4681113
-0.065571427 0.14871429 2.4695714
-0.0064545455 0.15127273 2.4696364
0.0020000001 0.15533334 2.467
-0.15000001 0.161 2.46
-0.118 0.175 2.464
-0.082000002 0.169 2.4649999
-0.071666665 0.16500001 2.4633334
-0.012000001 0.17392857 2.4714286
0.0022857145 0.16571429 2.4675713
-0.056499999 0.19049999 2.4660001
-0.034833331 0.19383334 2.4698336
-0.0089999996 0.18000001 2.4605
-0.056666669 0.21533334 2.4729998
-0.031500001 0.208 2.4705
-0.045333337 0.221 2.4743333
-0.037666667 0.22033334 2.4706666
-0.1242 0.25659999 2.4648001
-0.11766666 0.25266668 2.4633334
-0.071466669 0.25240001 2.4691331
-0.025285717 0.255 2.4661429
-0.014357142 0.25292858 2.4664998
-0.122 0.266 2.4755001
-0.11416665 0.266 2.4766667
-0.068333335 0.26700002 2.4777501
-0.056125004 0.27687502 2.4703751
-0.027043477 0.27034783 2.4661739
-0.01145652 0.27019557 2.4669352
0.0025000002 0.27900001 2.4675002
-0.065000005 0.28479999 2.4742
-0.050574981 0.28942502 2.4687254
-0.034399997 0.28671998 2.47404
-0.0043000001 0.287 2.4694998
0.0025714287 0.2864286 2.464143
-0.037666664 0.30000001 2.477
-0.245 -0.12666667 2.4886668
-0.23475 -0.1105 2.4879999
-0.212 -0.111 2.4960001
-0.24799998 -0.08433333 2.4953334
-0.23140001 -0.088199995 2.4887998
-0.24325 -0.077000007 2.49125
-0.23585713 -0.069285713 2.4874287
-0.23163638 -0.053181816 2.4857273
-0.153 0.051200002 2.4881999
-0.14633332 0.070333332 2.4916666
0.0265 0.071500003 2.4879999
-0.16887499 0.091000006 2.4802499
-0.001 0.082999997 2.4879999
0.0053333328 0.090333335 2.4911668
0.021 0.082999997 2.4879999
-0.106625 0.1125 2.4918752
-0.024 0.111 2.4905
-0.02 0.118 2.49
-0.14871429 0.13542856 2.4911427
-0.082999997 0.139 2.497
-0.078500003 0.13850001 2.4854999
-0.047000002 0.13033333 2.4870002
-0.028999999 0.13683334 2.4844999
-0.02 0.12666667 2.4946668
-0.14795238 0.14890477 2.4919996
-0.139 0.14666666 2.4869998
-0.07 0.1505 2.4893751
-0.0071666669 0.15800001 2.4866664
-0.082000002 0.16500001 2.483
-0.075125001 0.16387501 2.4883749
-0.0091428561 0.1672857 2.4887142
-0.049692314 0.19615385 2.4888461
-0.037666664 0.19766666 2.4873333
-0.049656238 0.20934376 2.4926565
-0.037374999 0.20937499 2.4924374
-0.1155 0.27275002 2.4820001
-0.066875003 0.26874998 2.4807501
-0.059999999 0.266 2.4805
-0.092047632 0.29285714 2.491524
-0.074090905 0.2869091 2.4862728
-0.091500007 0.301 2.4866667
-0.104 0.32600001 2.497
-0.11149999 0.34799999 2.49
-0.24833333 -0.125 2.5109999
-0.244 -0.12 2.5179999
-0.23750001 -0.1065 2.50775
-0.208 -0.108 2.5139999
-0.24575 -0.087750003 2.5135
-0.23700002 -0.091499999 2.5086999
-0.211 -0.092 2.5120001
-0.242 -0.079999998 2.5039999
-0.23999999 -0.079999998 2.5039999
-0.14719999 0.066400006 2.5096002
-0.14 0.071999997 2.506
0.025500001 0.07 2.50525
0.0098333331 0.084749997 2.5110834
0.021 0.079999998 2.507
-0.1085 0.10879999 2.5092998
-0.028666668 0.1105 2.5118334
-0.044666667 0.131 2.5078332
-0.028636364 0.13154547 2.5093634
-0.14649999 0.14399999 2.5009999
-0.082999997 0.15000001 2.5079999
-0.076222226 0.1522222 2.5065551
-0.13500001 0.294 2.5179999
-0.124 0.30700001 2.506
-0.252 -0.124 2.5220001
-0.248 -0.11157893 2.5342104
-0.21349999 -0.1105 2.5304999
-0.24669233 -0.096615389 2.5286152
-0.15099999 0.056000002 2.5239999
0.0125 0.056000002 2.5349998
-0.14500001 0.064571433 2.5289998
0.012500001 0.069428571 2.5335002
0.022285715 0.069142863 2.5251429
0.0095555559 0.081333324 2.5241113
-0.0425 0.116 2.5295
-0.033428572 0.11485714 2.5287144
-0.042750005 0.125 2.5276248
-0.032954548 0.12545453 2.5279999
-0.16599999 0.296 2.536
-0.15099999 0.28999999 2.529
-0.14 0.289 2.5220001
-0.20200001 0.37200001 2.529
-0.24950001 -0.11000001 2.54075
-0.21599999 -0.1075 2.559
-0.14466667 0.059999999 2.5413334
-0.212 0.093000002 2.556
-0.182 0.292 2.5450001
-0.177 0.296 2.54
-0.2175 -0.104 2.576
-0.2155 -0.091499999 2.5725
-0.13 0.0060000001 2.5669999
-0.22499999 0.27399999 2.5710001
-0.21420002 -0.1036 2.5915999
-0.2146 -0.093199998 2.5904
-0.14 -0.074000001 2.5899999
0.017000001 -0.052999999 2.586
-0.086999997 -0.028000001 2.5880001
-0.092 -0.012 2.586
-0.107 0.0080000004 2.5880001
-0.097000003 0.0080000004 2.5829999
-0.252 0.054000001 2.5940001
-0.2225 0.071999997 2.5830002
-0.21600001 0.178 2.592
-0.21600001 0.19400001 2.5899999
-0.241 0.255 2.582
-0.233 0.25 2.5836666
-0.20559999 -0.1036 2.6118
-0.198 -0.104 2.6159999
-0.055 -0.101 2.6059999
-0.20731817 -0.09290909 2.6119547
-0.071999997 -0.052999999 2.6099999
-0.12899999 -0.028000001 2.6129999
-0.124 -0.013 2.605
-0.248 0.075000003 2.6070001
-0.23899999 0.075999998 2.619
-0.22850001 0.112 2.619
-0.21799999 0.117 2.6129999
-0.212 0.13699999 2.6059999
-0.248 0.15800001 2.5999999
-0.20200001 -0.088500001 2.6209998
-0.19395652 -0.09104348 2.6243043
-0.141 -0.071999997 2.658
-0.139 -0.067000002 2.6545
0.016600002 -0.068000004 2.6572001
0.02 -0.069250003 2.6535001
0.015666667 -0.056666669 2.6563332
0.02 -0.057999998 2.648
-0.141 -0.086500004 2.6659999
-0.13055557 -0.084555551 2.6728888
-0.118 -0.083999999 2.6789999
-0.141 -0.077999994 2.6605
-0.12989654 -0.073448271 2.6674824
-0.11238235 -0.071352944 2.6752646
-0.092241377 -0.071724132 2.6775868
-0.077599995 -0.0704 2.6790001
-0.0058333334 -0.069000006 2.670222
0.0080434773 -0.069956519 2.6660867
-0.083999999 -0.059 2.6789999
-0.077666663 -0.059 2.6789999
-0.0069999993 -0.053200006 2.6690497
0.0074999994 -0.053750001 2.6658747
-0.111 -0.0845 2.68225
-0.10333333 -0.075333327 2.680167
-0.087166667 -0.07333333 2.6800001
-0.070956528 -0.072000004 2.6812174
-0.071500003 -0.059 2.6800001
-0.148 -0.039000001 2.698
-0.13 0.0060000001 2.6949999
-0.116 0.36950001 2.7732501
-0.126 0.40566668 2.7606666
-0.1935 0.0115 2.7950001
-0.15000001 0.33000001 2.796
-0.138 0.34399998 2.7845001
-0.212 0.41600001 2.7980001
-0.20900001 -0.071999997 2.806
-0.212 0.412 2.8010001
-0.061000001 -0.11 2.846
-0.1525 -0.045000002 2.8569999
-0.146 -0.003 2.846
-0.152 0.026000001 2.846
-0.13500001 0.043000001 2.8410001
-0.25 0.308 2.8559999
-0.096000001 -0.024500001 2.8715
-0.108 -0.0040000002 2.872
-0.119 0.0049999999 2.878
-0.193 0.026000001 2.8710001
-0.24766666 0.23066668 2.8766668
-0.25099999 0.24766667 2.8736668
-0.26300001 0.264 2.8755
-0.25650001 0.29049999 2.8652501
-0.134 -0.011 2.8905001
-0.12 -0.0040000002 2.8800001
-0.20900001 0.017000001 2.8989999
-0.12 0 2.8800001
-0.212 0.02 2.8929999
-0.28 0.064999998 2.881
-0.24699999 0.069499999 2.8944998
-0.235 0.089000002 2.8929999
-0.28099999 0.1495 2.885
-0.236 0.15000001 2.8969998
-0.278 0.16600001 2.8870001
-0.241 0.16850001 2.8935001
-0.27000001 0.184 2.892
-0.241 0.18200001 2.8870001
-0.23999999 0.19266665 2.882333
-0.23999999 0.211 2.8800001
-0.132 -0.041000001 2.9030001
-0.14399999 -0.027000001 2.9030001
-0.266 0.088 2.9100001
-0.25549999 0.131 2.9074998
-0.236 0.14300001 2.9000001
-0.241 -0.093000002 3.109
-0.23899999 -0.093000002 3.112
-0.169 -0.048999999 3.1070001
-0.13 -0.058499999 3.1300001
-0.264 0.097000003 3.141
-0.222 0.023 3.2119999
-0.21799999 0.0040000002 3.23
-0.27500001 0.1 3.223
-0.068999998 -0.125 3.247
-0.24699999 -0.081 3.277
-0.23999999 -0.074000001 3.2739999
-0.175 -0.055 3.266
-0.222 0.030999999 3.2820001
-0.273 0.113 3.3069999
-0.19400001 0.38600001 3.3677502
-0.226 0.0080000004 3.3900001
-0.226 0.026000001 3.4130001
-0.184 -0.050000001 3.437
-0.28400001 0.108 3.444
-0.27599999 0.112 3.4449999
-0.32100001 0.31999999 3.448
-0.317 0.31999999 3.4489999
-0.324 0.34 3.4419999
-0.153 -0.039000001 3.4749999
-0.15700001 -0.043000001 3.4820001
-0.30500001 0.15000001 3.4935
-0.25799999 0.024 3.5380001
-0.168 0.50400001 3.5939999
-0.189 0.47799999 3.618
-0.192 0.505 3.6029999
-0.2 0.47799999 3.6199999
-0.252 0.50700003 3.6340001
-0.23999999 0.50599998 3.6289999
-0.18799999 0.011 3.6489999
-0.21000001 0.42049998 3.6475
-0.29800001 0.54299998 3.6559999
-0.26100001 0.42399999 3.674
-0.25600001 0.041000001 3.6989999
-0.273 0.041000001 3.7190001
-0.32800001 0.074000001 3.7150002
-0.294 0.15899999 3.7149999
-0.142 -0.013 3.737
-0.138 -0.013 3.7349999
-0.31 0.107 3.72
-0.066 0.13699999 3.7249999
-0.347 0.37099999 3.7290001
-0.33500001 0.37 3.7290001
-0.17200001 -0.013 3.756
-0.154 -0.013 3.744
-0.31799999 0.285 3.744
-0.18099999 -0.046 3.7750001
-0.177 -0.043000001 3.77
-0.32100001 0.164 3.7809999
-0.29100001 -0.10733333 3.8356667
-0.34299999 0.072999999 3.849
-0.33700001 0.081 3.8570001
-0.285 -0.104 3.895
-0.33199999 0.121 3.9119999
-0.208 0.0070000002 4.0560002
-0.2 0.014 4.0500002
-0.2 0.023999998 4.052
-0.20900001 0 4.0609999
-0.28600001 0.024 4.0780001
-0.21799999 -0.064000003 4.0809999
-0.27900001 0.0099999998 4.0900002
-0.26699999 0.027000001 4.0949998
-0.26800001 0.02 4.1069999
-0.26899999 0.014 4.1230001
-0.352 0.098999999 4.1350002
-0.32800001 0.138 4.131
-0.32699999 0.148 4.1240001
-0.189 0.60000002 4.1420002
-0.182 0.53600001 4.1700001
-0.207 0.02 4.1869998
-0.21600001 0.50400001 4.1820002
-0.20299999 0.003 4.2340002
-0.28299999 0.028999999 4.2399998
-0.208 -0.001 4.243
-0.30399999 0.055 4.2574997
-0.31299999 0.479 4.2480001
-0.34999999 0.131 4.2709999
-0.338 0.156 4.2610002
-0.162 -0.0040000002 4.3070002
-0.428 0.098999999 4.3099999
-0.22 -0.0040000002 4.3319998
-0.28200001 0.021 4.322
-0.41999999 0.098999999 4.322
-0.421 0.212 4.3270001
-0.36000001 0.31400001 4.3210001
-0.215 -0.064000003 4.3579998
-0.198 -0.064000003 4.3530002
-0.215 -0.037999999 4.3530002
-0.40599999 0.13500001 4.3569999
-0.354 0.212 4.3499999
-0.32449999 -0.1035 4.3670001
-0.398 0.13500001 4.3639998
-0.211 0.0049999999 4.441
-0.22 -0.0040000002 4.46
-0.229 0.0080000004 4.461
-0.403 0.1085 4.5165
-0.227 -0.0020000001 4.54
-0.345 -0.113 4.5869999
-0.336 -0.104 4.5830002
-0.31400001 0.034000002 4.5799999
-0.21600001 0.0020000001 4.6149998
-0.25 -0.072999999 4.6630001
-0.389 0.161 4.7740002
-0.32100001 0.037999999 4.7859998
-0.414 0.11 4.8130002
-0.39200002 0.15349999 4.822
-0.23100001 0.0070000002 4.8460002
-0.25400001 0.016000001 4.9990001
-0.377 -0.125 5.013
-0.34200001 0.034000002 5.0180001
-0.33199999 0.034000002 5.053
-0.435 0.127 5.0489998
-0.354 0.057 5.073
-0.37099999 0.057 5.0929999
-0.42300001 0.155 5.098
-0.41100001 0.178 5.0869999
-0.26100001 0 5.1230001
-0.34999999 0.041000001 5.1750002
-0.24600001 0.74299997 5.2509999
-0.26300001 0.017000001 5.2659998
-0.226 0.685 5.276
-0.26800001 0.64499998 5.2950001
-0.38 0.059999999 5.355
-0.38499999 0.059999999 5.362
-0.428 0.18799999 5.3610001
-0.391 0.61299998 5.3769999
-0.24699999 -0.0020000001 5.3850002
-0.50099999 0.722 5.3990002
-0.26899999 -0.0049999999 5.4089999
-0.51200002 0.722 5.402
-0.48100001 0.57599998 5.4320002
-0.51599997 0.50999999 5.4549999
-0.46200001 0.38 5.474
-0.51599997 0.44800001 5.4679999
-0.51300001 0.338 5.494
-0.49599999 0.338 5.4980001
-0.52899998 0.36199999 5.4829998
-0.51800001 0.36300001 5.4920001
-0.51899999 0.163 5.5120001
-0.44499999 0.184 5.507
-0.43900001 0.184 5.5079999
-0.45300001 0.294 5.5040002
-0.24849999 0.71499997 5.5585003
-0.47499999 0.163 5.6550002
-0.42900002 0.639 5.6704998
-0.41999999 0.639 5.6659999
-0.44299999 0.63999999 5.678
-0.43799999 0.63999999 5.6750002
-0.46700001 0.64133334 5.6886668
-0.45200002 0.64049995 5.6820002
-0.56550002 0.132 5.7539997
-0.55900002 0.28200001 5.7740002
-0.54900002 0.28266665 5.789
-0.28400001 -0.086000003 5.809
-0.27199998 -0.086000003 5.8043327
-0.414 0.029999999 5.8060002
-0.50800002 0.15700001 5.8169999
-0.53649998 0.18000001 5.8134999
-0.53549999 0.28299999 5.8039999
-0.278 0.73900002 5.836
-0.243 0.796 5.8280001
-0.47999999 0.205 5.8569999
-0.51200002 0.66299999 5.9860001
-0.20200001 -0.041000001 6.0209999
-0.52600002 0.163 6.0320001
-0.514 0.17399999 6.0209999
-0.51599997 0.48699999 6.0339999
-0.52700001 0.53399998 6.027
-0.26300001 0.0070000002 6.0469999
-0.39899999 0.02 6.0580001
-0.58899999 0.34400001 6.0539999
-0.301 -0.090000004 6.1009998
-0.54000002 0.15099999 6.2870002
-0.528 0.19 6.2820001
-0.57099998 0.147 6.4349999
-0.53600001 0.23100001 6.4320002
-0.57599998 0.155 6.4520001
-0.55000001 0.19599999 6.447
-0.54699999 0.241 6.5669999
-0.461 0.032000002 6.6539998
-0.463 0.023 6.6729999
-0.59100002 0.168 6.6690001
-0.58499998 0.152 6.7220001
-0.46200001 0.013 6.869
-0.32100001 0.99699998 6.9039998
-0.32300001 0.89099997 6.948
-0.366 0.838 6.9759998
-0.59799999 0.204 7.046
-0.491 0.045000002 7.073
-0.66000003 0.97000003 7.099
-0.47999999 0.013 7.1030002
-0.67199999 0.97000003 7.1030002
-0.60100001 0.80000001 7.1209998
-0.48100001 0.023 7.1789999
-0.322 -0.003 7.2090001
-0.60600001 0.52100003 7.2030001
-0.68099999 0.56999999 7.1999998
-0.66600001 0.465 7.23
-0.65499997 0.465 7.2309999
-0.35299999 -0.061000001 7.25
-0.59500003 0.35100001 7.2519999
-0.63700002 0.16500001 7.263
-0.65799999 0.352 7.2639999
-0.50999999 0.048999999 7.3860002
-0.64600003 0.189 7.4239998
-0.32699999 1.0369999 7.4749999
-0.405 0.88099998 7.5539999
-0.60500002 1.1160001 7.5869999
-0.53100002 0.889 7.619
-0.49900001 0.88800001 7.6079998
-0.63599998 0.26899999 7.6719999
-0.27500001 -0.037 7.7579999
-0.29100001 0.024 7.75
-0.76999998 0.163 7.7579999
-0.39300001 1.1055 7.743
-0.26100001 -0.083999999 7.7620001
-0.322 0.024 7.7649999
-0.648 0.57999998 7.7709999
-0.75700003 0.163 7.7810001
-0.37099999 -0.037999999 7.8140001
-0.38699999 -0.083999999 7.8390002
-0.68099999 0.18799999 7.8340001
-0.745 0.226 7.822
-0.66399997 0.237 7.8249998
-0.71700001 0.227 7.8579998
-0.653 0.352 7.8400002
-0.54000002 0.025 7.9580002
-0.56300002 0.039999999 7.9520001
-0.69800001 0.20299999 7.9640002
-0.70700002 0.713 8.0389996
-0.71600002 0.71399999 8.0459995
-0.35299999 -0.088 8.1009998
-0.36899999 -0.103 8.1330004
-0.37900001 1.2105 8.2819996
-0.37900001 1.2309999 8.2840004
-0.347 1.1085 8.3169994
-0.347 1.089 8.323
-0.347 1.1289999 8.323
-0.41499999 1.0325 8.3530006
-0.58399999 0.041999999 8.375
-0.57800001 0.028000001 8.3920002
-0.44999999 0.99000001 8.3870001
-0.63599998 1.249 8.3929996
-0.63700002 1.237 8.4040003
-0.75 0.917 8.5690002
-0.75 0.93000001 8.5679998
-0.41 1.204 8.5670004
-0.39199999 1.204 8.5690002
-0.421 1.221 8.566
-0.76999998 0.87150002 8.5955
-0.76899999 0.89099997 8.5880003
-0.461 1.2079999 8.592
-0.44999999 1.224 8.5830002
-0.289 -0.081 8.6190004
-0.289 -0.067000002 8.6090002
-0.32300001 -0.013 8.6149998
-0.85500002 0.193 8.6190004
-0.764 0.206 8.6040001
-0.755 0.206 8.6059999
-0.75300002 0.75599998 8.6149998
-0.76999998 0.85100001 8.6059999
-0.45699999 1.159 8.618
-0.36399999 1.177 8.6000004
-0.35800001 0.0079999994 8.6370001
-0.73699999 0.67500001 8.6359997
-0.73699999 0.68699998 8.6269999
-0.75400001 0.71499997 8.6260004
-0.75400001 0.72899997 8.6239996
-0.75400001 0.74299997 8.6210003
-0.78899997 0.79149997 8.6265001
-0.41600001 1.09 8.6199999
-0.47999999 1.143 8.6330004
-0.44600001 1.143 8.625
-0.46799999 1.16 8.6219997
-0.39300001 -0.013 8.6569996
-0.35800001 -0.013 8.6409998
-0.84100002 0.19400001 8.6440001
-0.84200001 0.428 8.6540003
-0.84200001 0.449 8.6569996
-0.84200001 0.46900001 8.651
-0.84200001 0.48300001 8.6479998
-0.722 0.55199999 8.658
-0.72100002 0.5715 8.6485004
-0.72100002 0.59200001 8.6420002
-0.72100002 0.63300002 8.6400003
-0.56900001 1.2029999 8.6520004
-0.82599998 0.51200002 8.6739998
-0.72299999 0.51200002 8.677
-0.82599998 0.52499998 8.6669998
-0.722 0.53199995 8.6665001
-0.81 0.55299997 8.6759996
-0.58700001 1.1884999 8.6730003
-0.60399997 1.206 8.6669998
-0.412 -0.054000001 8.684
-0.70700002 0.43000001 8.6990004
-0.70700002 0.44999999 8.6914997
-0.72399998 0.491 8.6879997
-0.48199999 0.99800003 8.6870003
-0.39500001 -0.123 8.7080002
-0.43000001 -0.082000002 8.7080002
-0.72500002 0.403 8.71
-0.51999998 1 8.71
-0.68300003 1.265 8.71
-0.671 1.263 8.7019997
-0.796 0.26499999 8.7290001
-0.77899998 0.37599999 8.7299995
-0.77899998 0.38999999 8.7270002
-0.77899998 0.40400001 8.7229996
-0.59099996 1.0355 8.7360001
-0.713 1.298 8.7209997
-0.62699997 1.007 8.7639999
-0.76200002 0.97799999 8.8400002
-0.30399999 -0.059 8.8920002
-0.83099997 0.88 8.8920002
-0.796 0.88 8.8929996
-0.33399999 -0.028000001 8.9064999
-0.76700002 0.72100002 8.9110003
-0.80299997 0.792 8.9119997
-0.37 -0.028000001 8.9289999
-0.382 0.012 8.9250002
-0.76200002 0.68300003 8.9280005
-0.40799999 -0.028000001 8.9519997
-0.86500001 0.50999999 8.9449997
-0.40200001 -0.081 8.9750004
-0.426 -0.098999999 8.9870005
-0.414 -0.081 8.9809999
-0.43900001 -0.131 9.0039997
-0.428 -0.112 9.0019999
-0.76899999 0.389 9.0200005
-0.43399999 1.295 9.118
-0.39899999 1.186 9.1680002
-0.47299999 1.1160001 9.1999998
-0.68599999 1.0599999 9.3459997
-0.86199999 1.2589999 9.3760004
-0.389 -0.176 9.3900003
-0.84399998 0.99599999 9.441
-0.81 0.66500002 9.5080004
-0.889 0.77399999 9.5
-0.89100003 0.59200001 9.5424995
-0.85500002 0.59200001 9.5489998
-0.89300001 0.625 9.5430002
-0.79500002 0.51700002 9.5640001
-0.89499998 0.289 9.5819998
-0.45899999 1.392 9.6680002
-0.461 1.244 9.7299995
-0.52200001 1.17 9.7749996
-0.91500002 1.353 9.9390001
-0.94999999 1.355 9.9499998
-0.85100001 1.1160001 9.9729996
-0.51099998 1.383 9.9659996
-0.5 1.382 9.96
-0.44100001 0 10.087
-0.85799998 0.72500002 10.085
-0.94499999 0.80199999 10.08
-0.62800002 1.1799999 10.116
-0.94199997 0.64700001 10.122
-0.90799999 0.64700001 10.124
-0.65450001 1.1819999 10.1325
-0.63800001 1.181 10.12
-0.484 -0.081 10.141
-0.84299999 0.48699999 10.158
-0.912 0.48800001 10.175
-0.50300002 1.42 10.232
-0.49200001 1.455 10.224
-0.53600001 1.423 10.249
-0.45300001 1.421 10.241
-0.54699999 1.459 10.252
-0.44499999 1.408 10.261
-0.50800002 1.299 10.298
-0.56900001 1.382 10.298
-0.53600001 1.381 10.287
-0.5535 1.3475001 10.304
-0.68300003 1.42 10.338
-0.70599997 1.456 10.337
-0.69400001 1.455 10.331
-0.36300001 -0.112 10.355
-0.35299999 -0.112 10.352
-1.022 0.21699999 10.352
-0.56099999 1.207 10.354
-0.71799999 1.4220001 10.356
-0.389 -0.112 10.368999
-0.373 -0.112 10.36
-1.013 0.21799999 10.368
-0.79000002 1.51 10.378
-0.426 -0.112 10.398
-0.41049999 -0.112 10.3885
-0.634 1.212 10.392
-0.447 -0.112 10.411
-0.43599999 -0.112 10.404
-0.82599998 1.513 10.401
-0.83600003 1.53 10.4
-0.98900002 0.30199999 10.435
-0.72299999 1.233 10.436
-0.68800002 1.232 10.423
-0.9745 0.30250001 10.452999
-0.73299998 1.2180001 10.447
-0.96100003 0.303 10.471
-0.921 1.165 10.56
-0.97099996 1.0685 10.613501
-0.373 -0.067000002 10.621
-0.38299999 -0.050000001 10.633
-0.96899998 0.949 10.638
-0.41499999 -0.050999999 10.652
-0.44600001 0.017000001 10.65
-0.89399999 0.796 10.652
-0.926 0.86400002 10.642
-0.42699999 -0.050999999 10.66
-1.023 0.61299998 10.691
-0.46900001 -0.1 10.705
-0.50199997 -0.050999999 10.705
-0.52499998 -0.116 10.738
-0.505 -0.1 10.723
-0.514 -0.153 10.741
-0.49399999 -0.13600001 10.747
-0.90100002 0.48100001 10.748
-0.51999998 1.498 10.782
-0.48800001 1.498 10.788
-0.57599998 1.502 10.808
-0.56599998 1.421 10.859
-0.60000002 1.423 10.871
-0.755 1.534 10.899
-0.72000003 1.531 10.882
-0.602 1.272 10.917
-0.65799999 1.275 10.946
-0.89300001 1.615 10.969
-0.78399998 1.285 11.022
-0.54400003 1.623 11.038
-0.52750003 1.623 11.037
-0.52200001 1.536 11.058
-0.52200001 1.554 11.054
-0.51200002 1.554 11.056
-0.55000001 1.5895 11.054501
-0.53399998 1.589 11.05
-0.56699997 1.608 11.056
-0.54949999 1.607 11.049
-0.52750003 1.6059999 11.0445
-0.51099998 1.6059999 11.044
-0.57200003 1.6255 11.0505
-0.55500001 1.624 11.041
-0.51099998 1.623 11.04
-0.57200003 1.6435001 11.054
-0.54949999 1.642 11.045
-0.52750003 1.642 11.045
-0.51099998 1.642 11.045
-0.52849996 1.5215 11.078501
-0.51200002 1.529 11.0695
-0.58999997 1.5930001 11.077
-0.57299995 1.5915 11.0665
-0.62300003 1.6109999 11.079
-0.60650003 1.6105 11.075001
-0.58899999 1.61 11.07
-0.57800001 1.609 11.062
-0.62849998 1.6285 11.071
-0.60650003 1.627 11.067
-0.58899999 1.627 11.063
-0.62849998 1.6465 11.0735
-0.60650003 1.646 11.07
-0.58899999 1.645 11.065
-0.50199997 1.452 11.099
-0.47350001 1.452 11.098499
-0.52399999 1.471 11.098
-0.50749999 1.47 11.094
-0.49000001 1.469 11.092
-0.47350001 1.469 11.0895
-0.52950001 1.4875 11.0935
-0.50699997 1.487 11.088
-0.49000001 1.487 11.092
-0.47350001 1.487 11.0935
-0.546 1.506 11.095
-0.52950001 1.505 11.089
-0.50699997 1.5039999 11.086
-0.49000001 1.505 11.094
-0.47399998 1.506 11.098
-0.56800002 1.524 11.095
-0.55050004 1.5225 11.084499
-0.50099999 1.521 11.081
-0.49000001 1.522 11.088
-0.602 1.5505 11.092
-0.60933328 1.5716667 11.094334
-0.62950003 1.5955 11.0925
-0.60699999 1.5945001 11.085
-0.65200001 1.6140001 11.094
-0.634 1.612 11.083
-0.65149999 1.631 11.087
-0.65200001 1.6489999 11.087999
-0.52499998 1.438 11.119
-0.50749999 1.436 11.112
-0.491 1.436 11.113
-0.52999997 1.4545 11.109
-0.51300001 1.4529999 11.101
-0.49000001 1.452 11.1
-0.55200005 1.4725001 11.115
-0.53500003 1.471 11.104
-0.56900001 1.4910001 11.118
-0.55200005 1.4895 11.106
-0.59100002 1.508 11.115
-0.57449996 1.508 11.1115
-0.55699998 1.507 11.101
-0.60800004 1.5265 11.114
-0.59100002 1.525 11.103
-0.579 1.525 11.1
-0.63049996 1.5455 11.1155
-0.61299998 1.543 11.104
-0.648 1.563 11.117
-0.63049996 1.57025 11.10475
-0.67000002 1.599 11.116
-0.65249997 1.589 11.108251
-0.67000002 1.6160001 11.109
-0.68099999 1.635 11.119
-0.66900003 1.633 11.106
-0.68099999 1.654 11.119
-0.67000002 1.652 11.106
-0.56999999 1.386 11.138
-0.55900002 1.386 11.136
-0.56999999 1.404 11.139
-0.55900002 1.404 11.137
-0.54699999 1.4300001 11.132999
-0.53600001 1.4289999 11.1255
-0.56999999 1.4579999 11.134
-0.55500001 1.4510001 11.127999
-0.56900001 1.474 11.126
-0.63150001 1.494 11.1375
-0.64899999 1.512 11.138
-0.63150001 1.5115 11.134
-0.6085 1.5095 11.1245
-0.648 1.53 11.134
-0.63100004 1.5285001 11.127501
-0.65349996 1.5475 11.1315
-0.671 1.5650001 11.135
-0.65899998 1.564 11.126
-0.68199998 1.5829999 11.132
-0.67000002 1.582 11.125
-0.685 1.6066667 11.127999
-0.70499998 1.638 11.137
-0.69300002 1.6285 11.131001
-0.71000004 1.656 11.1355
-0.69300002 1.655 11.128
-0.58200002 1.352 11.158
-0.58200002 1.3710001 11.157
-0.56999999 1.37 11.148
-0.55900002 1.369 11.142
-0.58700001 1.3875 11.1475
-0.60500002 1.4069999 11.158
-0.58749998 1.4054999 11.1475
-0.60500002 1.425 11.158
-0.58749998 1.4235001 11.1495
-0.56999999 1.4220001 11.142
-0.55900002 1.4220001 11.14
-0.60399997 1.442 11.154
-0.58749998 1.4414999 11.1475
-0.56999999 1.4400001 11.142
-0.67199999 1.478 11.156
-0.65266663 1.4720001 11.152333
-0.63199997 1.4684999 11.14925
-0.68300003 1.4960001 11.156
-0.67199999 1.4960001 11.151
-0.65450001 1.495 11.143499
-0.68799996 1.5145 11.1555
-0.67199999 1.5140001 11.149
-0.66000003 1.513 11.144
-0.68799996 1.5325 11.1545
-0.671 1.5319999 11.148
-0.66000003 1.531 11.142
-0.70499998 1.551 11.157
-0.68799996 1.55 11.151
-0.671 1.549 11.143
-0.72799999 1.569 11.156
-0.71099997 1.5685 11.1535
-0.68799996 1.5664999 11.144
-0.7335 1.5875001 11.156
-0.7105 1.5864999 11.1495
-0.69300002 1.584 11.14
-0.7335 1.6055 11.156
-0.71099997 1.6045001 11.148001
-0.73399997 1.6235 11.1555
-0.71266669 1.6276666 11.144333
-0.75049996 1.6505001 11.1565
-0.73300004 1.649 11.148
-0.76200002 1.66 11.159
-0.61049998 1.337 11.1755
-0.61049998 1.3545001 11.174
-0.59299999 1.354 11.167
-0.61049998 1.373 11.1775
-0.59399998 1.372 11.168
-0.62800002 1.391 11.174
-0.61049998 1.3890001 11.163
-0.63349998 1.4085 11.1755
-0.616 1.408 11.164
-0.64999998 1.427 11.177
-0.63349998 1.4265001 11.172
-0.616 1.426 11.164
-0.66649997 1.4445 11.173
-0.64999998 1.444 11.168
-0.63249999 1.444 11.165501
-0.616 1.443 11.16
-0.68300003 1.471 11.167
-0.67199999 1.462 11.166
-0.66000003 1.461 11.161
-0.72899997 1.499 11.176
-0.70966667 1.4926666 11.173
-0.69449997 1.4885 11.165
-0.72799999 1.517 11.174
-0.71149999 1.5165 11.1685
-0.72799999 1.535 11.171
-0.71149999 1.5345 11.166
-0.72799999 1.552 11.162
-0.71700001 1.551 11.16
-0.76800001 1.5895 11.1735
-0.75 1.5880001 11.164
-0.76800001 1.6075001 11.172
-0.75099999 1.6059999 11.164
-0.79149997 1.627 11.1775
-0.76849997 1.6255 11.171499
-0.75099999 1.624 11.164
-0.79149997 1.6445 11.1765
-0.76849997 1.6435001 11.1685
-0.82999998 1.663 11.177
-0.81350005 1.6619999 11.171499
-0.79050004 1.6619999 11.1695
-0.773 1.661 11.165
-1.041 1.125 11.184
-1.006 1.125 11.181
-0.62800002 1.3295 11.1865
-0.61150002 1.3200001 11.183
-0.63599998 1.3513333 11.193334
-0.634 1.3745 11.191
-0.662 1.3940001 11.195
-0.65100002 1.393 11.192
-0.639 1.392 11.185
-0.66750002 1.4105 11.1915
-0.65100002 1.41 11.185
-0.685 1.429 11.195
-0.667 1.4275 11.183001
-0.70700002 1.449 11.199
-0.69 1.4465001 11.187
-0.73000002 1.467 11.199
-0.713 1.4655 11.193
-0.69499999 1.464 11.18
-0.741 1.484 11.193
-0.72899997 1.483 11.185
-0.71799999 1.482 11.183
-0.75199997 1.503 11.196
-0.74000001 1.5095 11.1825
-0.764 1.521 11.198
-0.75199997 1.52 11.191
-0.78966665 1.551 11.193001
-0.79149997 1.5734999 11.1875
-0.80900002 1.5930001 11.197
-0.79149997 1.5915 11.186
-0.81400001 1.6105 11.1925
-0.79149997 1.609 11.181499
-0.83200002 1.63 11.198
-0.81400001 1.6275001 11.184999
-0.83200002 1.647 11.191
-0.81449997 1.6454999 11.182
-0.84200001 1.664 11.186
-0.426 -0.052000001 11.217
-0.41499999 -0.052000001 11.211
-0.62900001 1.288 11.213
-0.65200001 1.306 11.217
-0.63450003 1.3045 11.207001
-0.66299999 1.323 11.214
-0.65200001 1.323 11.209
-0.63999999 1.322 11.201
-0.667 1.3473333 11.212334
-0.65200001 1.3499999 11.2065
-0.671 1.3716666 11.211001
-0.65200001 1.376 11.202
-0.69200003 1.3965 11.216
-0.67400002 1.395 11.202
-0.71399999 1.4145 11.217
-0.69099998 1.4135001 11.2085
-0.73100001 1.433 11.219
-0.71350002 1.432 11.21
-0.69599998 1.4299999 11.202
-0.73100001 1.45 11.211
-0.71899998 1.45 11.206
-0.74199998 1.4680001 11.207
-0.76499999 1.487 11.216
-0.75300002 1.4859999 11.206
-0.787 1.506 11.219
-0.76999998 1.5039999 11.2075
-0.787 1.523 11.21
-0.77499998 1.522 11.203
-0.80949998 1.55 11.2105
-0.79799998 1.54 11.206
-0.82200003 1.579 11.217
-0.80900002 1.576 11.203
-0.82700002 1.596 11.212999
-0.83200002 1.613 11.206
-0.84399998 1.632 11.21
-0.84399998 1.648 11.2
-0.954 0.84100002 11.233
-0.66399997 1.29 11.236
-0.64699996 1.289 11.2245
-0.66299999 1.307 11.222
-0.69200003 1.3264999 11.233
-0.67500001 1.324 11.221
-0.70899999 1.345 11.236
-0.69200003 1.3435 11.23
-0.72100002 1.363 11.237
-0.70850003 1.3705 11.2285
-0.69199997 1.37025 11.2255
-0.73199999 1.398 11.235
-0.71600002 1.3913332 11.226334
-0.74299997 1.416 11.233
-0.73100001 1.415 11.225
-0.74899995 1.4349999 11.2325
-0.74899995 1.4519999 11.2265
-0.77149999 1.4714999 11.233
-0.75400001 1.469 11.22
-0.78799999 1.489 11.23
-0.77600002 1.488 11.221
-0.80000001 1.508 11.232
-0.81099999 1.526 11.231
-0.79900002 1.524 11.22
-0.82200003 1.544 11.231
-0.82800001 1.562 11.231
-0.84600002 1.599 11.233
-0.83399999 1.581 11.233
-0.86799997 1.618 11.236
-0.85000002 1.6159999 11.225
-0.461 -0.052999999 11.241
-1.0779999 0.84299999 11.244
-0.72100002 1.3279999 11.249
-0.70899999 1.327 11.24
-0.727 1.3464999 11.249001
-0.74950004 1.365 11.2555
-0.73299998 1.364 11.247
-0.74766666 1.388 11.248668
-0.73199999 1.381 11.241
-0.76700002 1.4105 11.254
-0.755 1.4089999 11.246
-0.79000002 1.438 11.259
-0.7743333 1.4316667 11.252334
-0.79000002 1.456 11.255
-0.77199996 1.4545 11.245501
-0.801 1.474 11.257
-0.78899997 1.473 11.245
-0.81199998 1.493 11.255
-0.80000001 1.4910001 11.243
-0.824 1.511 11.256
-0.81199998 1.5089999 11.245
-0.82950002 1.528 11.2495
-0.83499998 1.546 11.246
-0.847 1.5650001 11.254
-0.847 1.5829999 11.25
-0.88699996 1.6025 11.2565
-0.87450004 1.6105 11.246
-0.85799998 1.6 11.243
-0.90399998 1.6295 11.2535
-0.89200002 1.62 11.249
-0.92699999 1.658 11.258
-0.91600001 1.64 11.258
-0.92699999 1.676 11.258
-0.51800001 -0.052999999 11.277
-0.73299998 1.33 11.262
-0.77399999 1.349 11.271
-0.75049996 1.348 11.263
-0.80199999 1.368 11.278
-0.79100001 1.367 11.273
-0.773 1.3665 11.264
-0.80199999 1.386 11.275
-0.79100001 1.386 11.27
-0.773 1.3845 11.262501
-0.80199999 1.404 11.276
-0.79100001 1.404 11.272
-0.77899998 1.403 11.266
-0.80799997 1.4225 11.271999
-0.79000002 1.421 11.263
-0.82499999 1.45 11.276501
-0.80799997 1.44875 11.26875
-0.83099997 1.4775 11.276
-0.81300002 1.476 11.266
-0.83099997 1.495 11.2715
-0.84799999 1.5140001 11.279
-0.83600003 1.512 11.268
-0.85399997 1.5315 11.2745
-0.87099999 1.551 11.277
-0.85300004 1.549 11.2665
-0.88750005 1.5685 11.274
-0.87 1.568 11.268
-0.85900003 1.567 11.264
-0.90499997 1.587 11.278
-0.88750005 1.5864999 11.272
-0.87 1.585 11.265
-0.85900003 1.584 11.261
-0.92799997 1.6059999 11.277
-0.90999997 1.604 11.267
-0.92799997 1.623 11.272
-0.91600001 1.622 11.263
-0.96200001 1.643 11.279
-0.93400002 1.642 11.271
-0.96200001 1.6695 11.275
-0.95099998 1.6695 11.274
-0.93900001 1.6689999 11.268499
-0.792 1.3329999 11.29
-0.80849999 1.3515 11.2925
-0.79100001 1.35 11.281
-0.83200002 1.3705001 11.2955
-0.81400001 1.369 11.285
-0.84899998 1.3890001 11.299
-0.83200002 1.388 11.292
-0.81400001 1.387 11.281
-0.84899998 1.4069999 11.295
-0.83099997 1.406 11.289
-0.81400001 1.405 11.281
-0.85399997 1.425 11.2925
-0.83099997 1.4235001 11.282499
-0.87199998 1.444 11.297
-0.85399997 1.4425 11.2885
-0.83700001 1.4505 11.2805
-0.884 1.462 11.299
-0.87199998 1.462 11.294
-0.852 1.4666667 11.286
-0.884 1.4809999 11.297
-0.86833334 1.4920001 11.295334
-0.8545 1.4885 11.2885
-0.90600002 1.517 11.299
-0.889 1.516 11.294
-0.87199998 1.515 11.289
-0.86000001 1.515 11.286
-0.912 1.535 11.295
-0.88849998 1.534 11.2885
-0.87099999 1.533 11.283
-0.92900002 1.554 11.297
-0.912 1.553 11.290501
-0.88800001 1.552 11.2835
-0.963 1.572 11.298
-0.95200002 1.572 11.298
-0.93449998 1.5715001 11.293
-0.91100001 1.5705 11.283
-0.96899998 1.59 11.295
-0.95200002 1.59 11.296
-0.93449998 1.5895 11.29
-0.917 1.5880001 11.282
-0.986 1.609 11.298
-0.96850002 1.6075001 11.2895
-0.95200002 1.608 11.289
-0.94 1.607 11.285
-0.986 1.627 11.296
-0.96799999 1.6255 11.2855
-0.95200002 1.625 11.284
-0.94 1.625 11.28
-0.98699999 1.645 11.294
-0.97399998 1.643 11.284
-0.95099998 1.643 11.28
-0.986 1.663 11.291
-0.97399998 1.6700001 11.2805
-0.99199998 1.6815 11.292999
-0.542 -0.124 11.31
-0.81599998 1.309 11.315
-0.82700002 1.337 11.317
-0.80900002 1.3355 11.304501
-0.85000002 1.355 11.316
-0.83200002 1.3535 11.3065
-0.86699998 1.3729999 11.315001
-0.84899998 1.3710001 11.304
-0.88950002 1.3915 11.316
-0.86650002 1.3905001 11.307
-0.90700001 1.41 11.319
-0.88950002 1.4095 11.312
-0.86650002 1.4075 11.3035
-0.90700001 1.428 11.313
-0.88950002 1.427 11.306
-0.87199998 1.426 11.301
-0.91299999 1.4465001 11.314501
-0.88950002 1.4445 11.3025
-0.91299999 1.4645 11.3125
-0.89499998 1.4630001 11.303
-0.93000001 1.483 11.316
-0.91250002 1.482 11.307501
-0.89133334 1.493 11.301666
-0.9453333 1.5133333 11.315333
-0.92949998 1.5095 11.309999
-0.91433334 1.5056667 11.306333
-0.9683333 1.5316666 11.313667
-0.94700003 1.5369999 11.3075
-0.92900002 1.536 11.301
-0.98799998 1.557 11.316
-0.97000003 1.5555 11.306
-0.9465 1.5545 11.302
-0.99300003 1.5745001 11.309999
-0.97500002 1.573 11.301
-1.01 1.5930001 11.314
-0.99199998 1.5915 11.302999
-1.011 1.6109999 11.313
-0.99800003 1.61 11.305
-1.023 1.631 11.319
-1.01 1.6289999 11.311
-0.99800003 1.628 11.304
-1.022 1.649 11.317
-1.01 1.647 11.309
-0.99900001 1.646 11.302
-1.023 1.6670001 11.316
-1.011 1.666 11.308
-0.99800003 1.665 11.3
-1.028 1.6845 11.3135
-1.01 1.683 11.303
-0.53200001 -0.14300001 11.326
-0.96200001 0.50599998 11.336
-0.85100001 1.285 11.338
-0.83999997 1.284 11.333
-0.85100001 1.303 11.337
-0.83399999 1.3025 11.3305
-0.86849999 1.339 11.3365
-0.85100001 1.3295 11.333
-0.83566666 1.3260001 11.327667
-0.89100003 1.3575001 11.335
-0.86800003 1.3559999 11.3255
-0.90799999 1.376 11.333
-0.89050001 1.375 11.3265
-0.93099999 1.395 11.338
-0.91299999 1.3935001 11.326
-0.93099999 1.4119999 11.337
-0.91900003 1.411 11.328
-0.94300002 1.431 11.339
-0.93099999 1.4299999 11.331
-0.91900003 1.429 11.322
-0.94300002 1.449 11.334
-0.93099999 1.448 11.327
-0.96600002 1.4680001 11.339
-0.94850004 1.4675 11.3315
-0.93099999 1.466 11.323
-0.97099996 1.4855 11.3315
-0.94799995 1.484 11.323999
-0.98900002 1.5039999 11.335
-0.97099996 1.503 11.326
-0.954 1.502 11.322
-0.98900002 1.522 11.331
-0.97600001 1.521 11.321
-1.001 1.541 11.335
-0.99399996 1.549 11.325
-1.029 1.5775 11.3335
-1.0115 1.568 11.3295
-1.052 1.5964999 11.3365
-1.028 1.5945001 11.3245
-1.0470001 1.615 11.334
-1.029 1.6135 11.3235
-1.0470001 1.633 11.334
-1.035 1.632 11.326
-1.0470001 1.651 11.333
-1.035 1.65 11.325
-1.053 1.6705 11.3355
-1.035 1.668 11.324
-1.0525 1.6875 11.329
-0.88700002 1.2869999 11.355
-0.86899996 1.2855 11.3465
-0.89250004 1.3049999 11.354
-0.86899996 1.3034999 11.3445
-0.89250004 1.323 11.355
